0.431407,0.431407,0.431702,0.431407,0.431407,0.431407,0.437418,0.442492,0.481407,0.436002,0.359185,0.454484,0.431407,0.431407,0.431407,0.431407,0.431407,0.43177,0.432977,0.431407,0.467121,0.45224,0.431407,0.431407,0.431407,0.431407,0.431407,0.431407,0.456407,0.457734,0.475157,0.456407,0.431407,0.431407,0.431407,0.435952,0.425851,0.431407,0.370879,0.431407,0.431407,0.431407,0.431407,0.412537,0.408095,0.399984,0.481407,0.376645,0.343907,0.431407,0.431407,0.431407,0.441407,0.431407,0.359532,0.373715,0.325157,0.288225,0.270296,0.268907,0.319868,0.409185,0.37724,0.31474,0.343907,0.336407,0.30224,0.375157,0.295043,0.30474,0.306407,0.281407,0.35224,0.381407,0.386407,0.36474,0.336963,0.436407,0.361407,0.41474,0.363225,0.381407,0.356407,0.366407,0.324264,0.337657,0.427561,0.401407,0.467121,0.431407,0.381407,0.425157,0.416022,0.435574,0.381407,0.426407,0.481407,0.452836,0.481407,0.46474,0.467121,0.461407,0.475851,0.481407,0.486963,0.493907,0.466407,0.500157,0.481407,0.486962,0.456407,0.489099,0.211407,-0.043593,-0.043593,-0.0352597,-0.018593,-0.068593,-0.018593,-0.068593,-0.018593,-0.018593,-0.068593,-0.0309671,-0.018593,-0.0204914,-0.0187889,-0.018593,-0.018593,-0.018593,-0.018593,-0.018593,-0.018593,nan,nan,nan,nan,nan,nan,nan,nan,nan,nan,nan,nan,nan,nan,nan,nan,nan,nan,nan,nan,nan,nan,nan,nan,nan,nan,nan,nan,nan,nan,nan,nan,nan,nan,nan,nan,nan,nan,nan,nan,nan,nan,nan,nan,nan,nan,nan,nan,nan,nan,nan,nan,nan,nan,nan,nan,nan,nan,nan,nan,nan,nan,nan,nan,nan,nan,nan,nan,nan,nan,nan,nan,nan,nan,nan,nan,nan,nan,nan,nan,nan,nan,nan,nan,nan,nan,nan,nan,nan,nan,nan,nan,nan,nan,nan,nan,nan,nan,nan,nan,nan,nan,nan,nan,nan,nan,nan,nan,nan,nan,nan,nan,nan,nan,nan,nan,nan,nan,nan,nan,nan,nan,nan,nan,nan,nan,nan,nan,nan,nan,nan,nan,nan,nan,nan,nan,nan,nan,nan,nan,nan,nan,nan,nan,nan,nan,nan,nan,nan,nan,nan,nan,nan,nan,nan,nan,nan,nan,nan,nan,nan,nan,nan,nan,nan,nan,nan
0.431407,0.431407,0.431407,0.431407,0.431407,0.431407,0.431407,0.431407,0.431407,0.431407,0.341407,0.431407,0.345043,0.431407,0.431407,0.431407,0.431407,0.431407,0.431407,0.431407,0.436407,0.431407,0.431407,0.431407,0.431407,0.431407,0.445693,0.474264,0.481407,0.481407,0.393907,0.371407,0.340782,0.431407,0.237657,0.346407,0.351407,0.381407,0.406407,0.431407,0.431407,0.393763,0.395563,0.396731,0.397969,0.481407,0.403907,0.256407,0.213225,0.431407,0.299264,0.363225,0.231407,0.301995,0.342518,0.25833,0.286963,0.381407,0.131407,0.281407,0.327561,0.406407,0.318907,-0.068593,0.367518,0.431407,0.285952,0.309978,0.281407,0.291407,0.402836,0.267771,0.331407,0.236407,0.366022,0.206407,0.399264,0.366022,0.311407,0.40224,0.331407,0.381407,0.31474,0.373074,0.248074,0.445693,0.336407,0.368907,0.395043,0.398074,0.424264,0.409978,0.431407,0.40224,0.348074,0.410574,0.401407,0.431407,0.431407,0.451407,0.467121,0.452836,0.481407,0.451407,0.495693,0.461407,0.500157,0.501407,0.490498,0.491407,0.481407,0.495693,0.24974,-0.068593,-0.038593,-0.0220125,-0.038593,-0.0346465,-0.018593,-0.068593,-0.018593,-0.068593,-0.068593,-0.0370548,-0.018593,-0.0216976,-0.018593,-0.018593,-0.018593,-0.018593,-0.018593,-0.018593,nan,nan,nan,nan,nan,nan,nan,nan,nan,nan,nan,nan,nan,nan,nan,nan,nan,nan,nan,nan,nan,nan,nan,nan,nan,nan,nan,nan,nan,nan,nan,nan,nan,nan,nan,nan,nan,nan,nan,nan,nan,nan,nan,nan,nan,nan,nan,nan,nan,nan,nan,nan,nan,nan,nan,nan,nan,nan,nan,nan,nan,nan,nan,nan,nan,nan,nan,nan,nan,nan,nan,nan,nan,nan,nan,nan,nan,nan,nan,nan,nan,nan,nan,nan,nan,nan,nan,nan,nan,nan,nan,nan,nan,nan,nan,nan,nan,nan,nan,nan,nan,nan,nan,nan,nan,nan,nan,nan,nan,nan,nan,nan,nan,nan,nan,nan,nan,nan,nan,nan,nan,nan,nan,nan,nan,nan,nan,nan,nan,nan,nan,nan,nan,nan,nan,nan,nan,nan,nan,nan,nan,nan,nan,nan,nan,nan,nan,nan,nan,nan,nan,nan,nan,nan,nan,nan,nan,nan,nan,nan,nan,nan,nan,nan,nan,nan,nan,nan
0.431407,0.431407,0.431407,0.431407,0.431407,0.431407,0.431407,0.431407,0.431407,0.431407,0.431407,0.431407,0.431407,0.431407,0.431407,0.431407,0.431407,0.431407,0.431407,0.431407,0.431407,0.431407,0.431407,0.431407,0.431407,0.431407,0.443907,0.474264,0.481407,0.481407,0.459185,0.431407,0.33855,0.431407,0.295043,0.337657,0.416407,0.393907,0.381407,0.418907,0.421407,0.381407,0.381407,0.381407,0.381407,0.448074,0.384532,0.411407,0.431407,0.33474,0.28368,0.16474,0.250157,0.341407,0.275851,0.274264,0.309532,0.381407,0.309978,0.298074,0.368907,0.30833,0.402836,0.173074,0.33974,0.381407,0.35224,0.325851,0.36355,0.31474,0.311407,0.306407,0.299264,0.336963,0.322032,0.200157,0.349589,0.318907,0.331407,0.348074,0.281407,0.373715,0.361407,0.346792,0.381407,0.331407,0.381407,0.370296,0.381407,0.373074,0.392518,0.33974,0.419868,0.46474,0.36474,0.431407,0.431407,0.398074,0.381407,0.421407,0.387657,0.450157,0.481407,0.459978,0.492518,0.46474,0.498074,0.456407,0.492518,0.481407,0.481407,0.481407,0.253074,-0.068593,-0.0352597,-0.018593,-0.068593,-0.0408698,-0.0352597,-0.068593,-0.018593,-0.068593,-0.0463427,-0.018593,-0.018593,-0.0234173,-0.018593,-0.0186958,-0.018593,-0.018593,-0.018593,-0.018593,nan,nan,nan,nan,nan,nan,nan,nan,nan,nan,nan,nan,nan,nan,nan,nan,nan,nan,nan,nan,nan,nan,nan,nan,nan,nan,nan,nan,nan,nan,nan,nan,nan,nan,nan,nan,nan,nan,nan,nan,nan,nan,nan,nan,nan,nan,nan,nan,nan,nan,nan,nan,nan,nan,nan,nan,nan,nan,nan,nan,nan,nan,nan,nan,nan,nan,nan,nan,nan,nan,nan,nan,nan,nan,nan,nan,nan,nan,nan,nan,nan,nan,nan,nan,nan,nan,nan,nan,nan,nan,nan,nan,nan,nan,nan,nan,nan,nan,nan,nan,nan,nan,nan,nan,nan,nan,nan,nan,nan,nan,nan,nan,nan,nan,nan,nan,nan,nan,nan,nan,nan,nan,nan,nan,nan,nan,nan,nan,nan,nan,nan,nan,nan,nan,nan,nan,nan,nan,nan,nan,nan,nan,nan,nan,nan,nan,nan,nan,nan,nan,nan,nan,nan,nan,nan,nan,nan,nan,nan,nan,nan,nan,nan,nan,nan,nan,nan,nan
0.431407,0.431407,0.431407,0.424264,0.416407,0.381407,0.398074,0.41474,0.395693,0.406407,0.406407,0.431407,0.41474,0.431407,0.431407,0.431407,0.431407,0.431407,0.431407,0.431407,0.431407,0.431407,0.431407,0.431407,0.431407,0.431407,0.443907,0.431407,0.456407,0.456407,0.397032,0.431407,0.425851,0.431407,0.398074,0.417121,0.360574,0.406407,0.281407,0.31474,0.243907,0.391407,0.306407,0.381407,0.343907,0.398074,0.281407,0.387657,0.32474,0.315782,0.231407,0.381407,0.381407,0.402836,0.301407,0.252836,0.315618,0.306407,0.298074,0.381407,0.341407,0.325157,0.381407,0.361407,0.335574,0.317121,0.33974,0.331407,0.316022,0.343907,0.336407,0.30868,0.293907,0.28974,0.323074,0.309185,0.400638,0.253629,0.293907,0.368907,0.316407,0.273715,0.259978,0.352836,0.456407,0.31474,0.391407,0.346407,0.386407,0.363225,0.391407,0.367771,0.418907,0.348074,0.396407,0.403629,0.392518,0.401407,0.38855,0.426407,0.406407,0.401407,0.421407,0.46474,0.473074,0.456407,0.486407,0.451407,0.495693,0.471407,0.501407,0.481407,0.25438,-0.068593,-0.018593,-0.018593,-0.068593,-0.018593,-0.0519264,-0.0432792,-0.018593,-0.068593,-0.0496572,-0.068593,-0.0362015,-0.0261257,-0.018593,-0.0188357,-0.0185945,-0.018593,-0.018593,-0.018593,nan,nan,nan,nan,nan,nan,nan,nan,nan,nan,nan,nan,nan,nan,nan,nan,nan,nan,nan,nan,nan,nan,nan,nan,nan,nan,nan,nan,nan,nan,nan,nan,nan,nan,nan,nan,nan,nan,nan,nan,nan,nan,nan,nan,nan,nan,nan,nan,nan,nan,nan,nan,nan,nan,nan,nan,nan,nan,nan,nan,nan,nan,nan,nan,nan,nan,nan,nan,nan,nan,nan,nan,nan,nan,nan,nan,nan,nan,nan,nan,nan,nan,nan,nan,nan,nan,nan,nan,nan,nan,nan,nan,nan,nan,nan,nan,nan,nan,nan,nan,nan,nan,nan,nan,nan,nan,nan,nan,nan,nan,nan,nan,nan,nan,nan,nan,nan,nan,nan,nan,nan,nan,nan,nan,nan,nan,nan,nan,nan,nan,nan,nan,nan,nan,nan,nan,nan,nan,nan,nan,nan,nan,nan,nan,nan,nan,nan,nan,nan,nan,nan,nan,nan,nan,nan,nan,nan,nan,nan,nan,nan,nan,nan,nan,nan,nan,nan,nan
0.431407,0.41474,0.393907,0.400157,0.381407,0.381407,0.381407,0.381407,0.381407,0.381407,0.381407,0.38974,0.381407,0.409978,0.406407,0.431407,0.411407,0.400157,0.41474,0.412657,0.424264,0.431407,0.431407,0.431407,0.431407,0.431407,0.431407,0.431407,0.431407,0.35868,0.346407,0.411407,0.28855,0.424264,0.401407,0.401407,0.401407,0.41474,0.381407,0.421407,0.431407,0.231407,0.406407,0.323074,0.356407,0.381407,0.31474,0.331407,0.281407,0.381407,0.381407,0.381407,0.381407,0.381407,0.425851,0.228466,0.274589,0.298074,0.309978,0.331407,0.331407,0.290498,0.381407,0.33474,0.360574,0.281407,0.242518,0.328282,0.192945,0.36376,0.167121,0.348907,0.296407,0.335253,0.32724,0.290498,0.321407,0.304484,0.335574,0.30224,0.323074,0.289099,0.315782,0.295043,0.317771,0.319868,0.295693,0.381407,0.359978,0.402836,0.351407,0.381407,0.392945,0.274264,0.413225,0.400157,0.404134,0.312657,0.436963,0.398074,0.424264,0.381407,0.436963,0.33855,0.431407,0.401407,0.481407,0.461407,0.506407,0.451407,0.498074,0.481407,0.247536,-0.068593,0.0116006,-0.018593,-0.068593,-0.018593,-0.068593,-0.0435461,-0.018593,-0.068593,-0.0524344,-0.043593,-0.0414829,-0.0290808,-0.018593,-0.018948,-0.0185939,-0.018593,-0.018593,nan,nan,nan,nan,nan,nan,nan,nan,nan,nan,nan,nan,nan,nan,nan,nan,nan,nan,nan,nan,nan,nan,nan,nan,nan,nan,nan,nan,nan,nan,nan,nan,nan,nan,nan,nan,nan,nan,nan,nan,nan,nan,nan,nan,nan,nan,nan,nan,nan,nan,nan,nan,nan,nan,nan,nan,nan,nan,nan,nan,nan,nan,nan,nan,nan,nan,nan,nan,nan,nan,nan,nan,nan,nan,nan,nan,nan,nan,nan,nan,nan,nan,nan,nan,nan,nan,nan,nan,nan,nan,nan,nan,nan,nan,nan,nan,nan,nan,nan,nan,nan,nan,nan,nan,nan,nan,nan,nan,nan,nan,nan,nan,nan,nan,nan,nan,nan,nan,nan,nan,nan,nan,nan,nan,nan,nan,nan,nan,nan,nan,nan,nan,nan,nan,nan,nan,nan,nan,nan,nan,nan,nan,nan,nan,nan,nan,nan,nan,nan,nan,nan,nan,nan,nan,nan,nan,nan,nan,nan,nan,nan,nan,nan,nan,nan,nan,nan,nan,nan
0.381407,0.381407,0.381407,0.381407,0.369868,0.356407,0.343907,0.343907,0.356407,0.369471,0.381407,0.381407,0.381407,0.381407,0.38855,0.381407,0.381407,0.381407,0.381407,0.391407,0.401407,0.431407,0.431407,0.431407,0.431407,0.431407,0.431407,0.431407,0.431407,0.26474,0.418907,0.26474,0.302836,0.401407,0.411407,0.381407,0.41474,0.390309,0.431407,0.417518,0.431407,0.281407,0.412657,0.225157,0.239099,0.218907,0.223074,0.312657,0.381407,0.381407,0.381407,0.381407,0.381407,0.406407,0.417121,0.340782,0.309978,0.281407,0.295043,0.331407,0.260574,0.286407,0.259978,0.341407,0.273074,0.31474,0.311407,0.37724,0.313225,0.30246,0.256407,0.31376,0.231407,0.28855,0.270296,0.351407,0.281407,0.303629,0.354484,0.340498,0.299589,0.266407,0.281407,0.343907,0.281407,0.304484,0.342518,0.318907,0.33855,0.36474,0.342518,0.331407,0.419868,0.248074,0.417771,0.325157,0.366022,0.371407,0.368907,0.375851,0.393907,0.392518,0.421407,0.423074,0.406407,0.400157,0.421407,0.402836,0.493907,0.456407,0.493907,0.481407,0.224264,-0.088593,0.01372,-0.031093,-0.068593,-0.018593,-0.068593,-0.0437596,-0.018593,-0.068593,-0.0545046,-0.068593,-0.0447945,-0.0306156,-0.018593,-0.0189871,-0.0185949,-0.018593,-0.018593,nan,nan,nan,nan,nan,nan,nan,nan,nan,nan,nan,nan,nan,nan,nan,nan,nan,nan,nan,nan,nan,nan,nan,nan,nan,nan,nan,nan,nan,nan,nan,nan,nan,nan,nan,nan,nan,nan,nan,nan,nan,nan,nan,nan,nan,nan,nan,nan,nan,nan,nan,nan,nan,nan,nan,nan,nan,nan,nan,nan,nan,nan,nan,nan,nan,nan,nan,nan,nan,nan,nan,nan,nan,nan,nan,nan,nan,nan,nan,nan,nan,nan,nan,nan,nan,nan,nan,nan,nan,nan,nan,nan,nan,nan,nan,nan,nan,nan,nan,nan,nan,nan,nan,nan,nan,nan,nan,nan,nan,nan,nan,nan,nan,nan,nan,nan,nan,nan,nan,nan,nan,nan,nan,nan,nan,nan,nan,nan,nan,nan,nan,nan,nan,nan,nan,nan,nan,nan,nan,nan,nan,nan,nan,nan,nan,nan,nan,nan,nan,nan,nan,nan,nan,nan,nan,nan,nan,nan,nan,nan,nan,nan,nan,nan,nan,nan,nan,nan,nan
0.381407,0.381407,0.372316,0.350157,0.336407,0.348074,0.331407,0.331407,0.331407,0.36474,0.356407,0.370216,0.381407,0.381407,0.381407,0.381407,0.381407,0.381407,0.393907,0.423074,0.412657,0.421407,0.431407,0.431407,0.431407,0.431407,0.431407,0.431407,0.431407,0.331407,0.409978,0.342121,0.38974,0.381407,0.381407,0.381407,0.381407,0.41474,0.398074,0.342945,0.431407,0.418907,0.393907,0.393907,0.398074,0.41474,0.345043,0.272316,0.293907,0.325851,0.318907,0.342945,0.351407,0.331407,0.291407,0.295043,0.33974,0.318907,0.33974,0.381407,0.298074,0.31474,0.291407,0.268907,0.285253,0.349589,0.262176,0.323715,0.295693,0.27724,0.348074,0.281407,0.286407,0.345043,0.216407,0.327836,0.296792,0.31355,0.331407,0.262176,0.311407,0.231407,0.301407,0.320296,0.306407,0.335574,0.251407,0.335574,0.343907,0.323074,0.30868,0.336407,0.356407,0.245693,0.38974,0.343907,0.398074,0.359978,0.369869,0.373074,0.381407,0.331407,0.40224,0.337657,0.406407,0.381407,0.421407,0.341407,0.381407,0.398074,0.470296,0.481407,0.243407,-0.068593,0.0159687,-0.048593,-0.0420673,-0.018593,-0.068593,-0.0438507,-0.018593,-0.068593,-0.055754,-0.056093,-0.0456447,-0.030828,-0.018593,-0.0189985,-0.0185944,-0.018593,-0.018593,nan,nan,nan,nan,nan,nan,nan,nan,nan,nan,nan,nan,nan,nan,nan,nan,nan,nan,nan,nan,nan,nan,nan,nan,nan,nan,nan,nan,nan,nan,nan,nan,nan,nan,nan,nan,nan,nan,nan,nan,nan,nan,nan,nan,nan,nan,nan,nan,nan,nan,nan,nan,nan,nan,nan,nan,nan,nan,nan,nan,nan,nan,nan,nan,nan,nan,nan,nan,nan,nan,nan,nan,nan,nan,nan,nan,nan,nan,nan,nan,nan,nan,nan,nan,nan,nan,nan,nan,nan,nan,nan,nan,nan,nan,nan,nan,nan,nan,nan,nan,nan,nan,nan,nan,nan,nan,nan,nan,nan,nan,nan,nan,nan,nan,nan,nan,nan,nan,nan,nan,nan,nan,nan,nan,nan,nan,nan,nan,nan,nan,nan,nan,nan,nan,nan,nan,nan,nan,nan,nan,nan,nan,nan,nan,nan,nan,nan,nan,nan,nan,nan,nan,nan,nan,nan,nan,nan,nan,nan,nan,nan,nan,nan,nan,nan,nan,nan,nan,nan
0.372316,0.360516,0.372316,0.348074,0.335574,0.331407,0.331407,0.331407,0.331407,0.331407,0.348074,0.357604,0.381407,0.381407,0.381407,0.381407,0.381407,0.384911,0.381407,0.416407,0.393907,0.38974,0.431407,0.431407,0.431407,0.431407,0.431407,0.431407,0.431407,0.431407,0.413225,0.231407,0.218907,0.381407,0.381407,0.381407,0.381407,0.406407,0.322316,0.381407,-0.268593,0.409978,0.381407,0.406407,0.402836,0.406407,0.331407,0.322316,0.38974,0.340498,0.325851,0.381407,0.335952,0.36474,0.281407,0.17474,0.293907,0.286407,0.30833,0.381407,0.335952,0.306407,0.381407,0.252836,0.343907,0.292518,0.274264,0.248074,0.31474,0.224264,0.292945,0.331407,0.32724,0.359185,0.231407,0.254484,0.277561,0.331407,0.262657,0.231407,0.293172,0.195693,0.308074,0.25868,0.310574,0.299589,0.321407,0.31474,0.331407,0.295043,0.359185,0.351407,0.346792,0.224264,0.35833,0.301407,0.359978,0.374264,0.354134,0.386407,0.356407,0.350157,0.41474,0.356407,0.377561,0.367121,0.431407,0.41474,0.38855,0.402836,0.470296,0.381407,0.245407,-0.068593,0.016211,-0.048593,-0.0413413,-0.018593,-0.068593,-0.0437762,-0.018593,-0.068593,-0.0567379,-0.068593,-0.0464527,-0.018593,-0.018593,-0.0190156,-0.0185948,-0.018593,-0.018593,nan,nan,nan,nan,nan,nan,nan,nan,nan,nan,nan,nan,nan,nan,nan,nan,nan,nan,nan,nan,nan,nan,nan,nan,nan,nan,nan,nan,nan,nan,nan,nan,nan,nan,nan,nan,nan,nan,nan,nan,nan,nan,nan,nan,nan,nan,nan,nan,nan,nan,nan,nan,nan,nan,nan,nan,nan,nan,nan,nan,nan,nan,nan,nan,nan,nan,nan,nan,nan,nan,nan,nan,nan,nan,nan,nan,nan,nan,nan,nan,nan,nan,nan,nan,nan,nan,nan,nan,nan,nan,nan,nan,nan,nan,nan,nan,nan,nan,nan,nan,nan,nan,nan,nan,nan,nan,nan,nan,nan,nan,nan,nan,nan,nan,nan,nan,nan,nan,nan,nan,nan,nan,nan,nan,nan,nan,nan,nan,nan,nan,nan,nan,nan,nan,nan,nan,nan,nan,nan,nan,nan,nan,nan,nan,nan,nan,nan,nan,nan,nan,nan,nan,nan,nan,nan,nan,nan,nan,nan,nan,nan,nan,nan,nan,nan,nan,nan,nan,nan
0.356407,0.345693,0.33855,0.331407,0.331407,0.331407,0.331407,0.331407,0.331407,0.331407,0.331407,0.331407,0.368907,0.381407,0.356407,0.381407,0.381407,0.381407,0.381407,0.387657,0.381407,0.381407,0.409597,0.431407,0.424264,0.431407,0.431407,0.423074,0.41474,0.431407,0.396407,0.381407,0.381407,0.381407,0.381407,0.381407,0.381407,0.381407,0.31474,0.198074,0.271407,0.331407,0.281407,0.381407,0.309978,0.318907,0.312657,0.381407,0.381407,0.406407,0.259185,0.381407,0.381407,0.381407,0.151407,0.25833,0.289099,0.25224,0.308074,0.270296,0.335952,0.36474,0.32474,0.306407,0.295043,0.324264,0.350638,0.331407,0.30474,0.167121,0.340782,0.236407,0.31474,0.28855,0.306407,0.316701,0.362657,0.323715,0.299054,0.304484,0.328074,0.226862,0.30868,0.285574,0.222032,0.326407,0.258074,0.27724,0.312176,0.281407,0.304484,0.356407,0.369868,0.274264,0.385574,0.331407,0.339099,0.350157,0.348074,0.323074,0.375157,0.370296,0.401407,0.362657,0.390498,0.376862,0.395043,0.331407,0.371407,0.359978,0.446407,0.348074,0.250638,-0.058593,0.0112764,-0.048593,-0.0416013,-0.018593,-0.068593,-0.0436511,-0.018593,-0.068593,-0.0577307,-0.068593,-0.0487882,-0.0328256,-0.018593,-0.0191241,-0.0185966,-0.018593,-0.018593,nan,nan,nan,nan,nan,nan,nan,nan,nan,nan,nan,nan,nan,nan,nan,nan,nan,nan,nan,nan,nan,nan,nan,nan,nan,nan,nan,nan,nan,nan,nan,nan,nan,nan,nan,nan,nan,nan,nan,nan,nan,nan,nan,nan,nan,nan,nan,nan,nan,nan,nan,nan,nan,nan,nan,nan,nan,nan,nan,nan,nan,nan,nan,nan,nan,nan,nan,nan,nan,nan,nan,nan,nan,nan,nan,nan,nan,nan,nan,nan,nan,nan,nan,nan,nan,nan,nan,nan,nan,nan,nan,nan,nan,nan,nan,nan,nan,nan,nan,nan,nan,nan,nan,nan,nan,nan,nan,nan,nan,nan,nan,nan,nan,nan,nan,nan,nan,nan,nan,nan,nan,nan,nan,nan,nan,nan,nan,nan,nan,nan,nan,nan,nan,nan,nan,nan,nan,nan,nan,nan,nan,nan,nan,nan,nan,nan,nan,nan,nan,nan,nan,nan,nan,nan,nan,nan,nan,nan,nan,nan,nan,nan,nan,nan,nan,nan,nan,nan,nan
0.331407,0.331407,0.331407,0.331407,0.331407,0.331407,0.331407,0.331407,0.331407,0.331407,0.331407,0.331407,0.331407,0.331407,0.331407,0.331407,0.381407,0.381407,0.381407,0.381407,0.38048,0.383982,0.431407,0.408074,0.418907,0.381407,0.411407,0.38974,0.406407,0.402836,0.38974,0.381407,0.381407,0.381407,0.381407,0.381407,0.381407,0.381407,0.395693,0.337657,0.298074,0.285574,0.328074,0.28855,0.231407,0.381407,0.381407,0.381407,0.391407,0.401407,0.38855,0.350157,0.331407,0.349264,0.243907,0.281407,0.306407,0.31474,0.327836,0.231407,0.331407,0.156407,0.352836,0.226862,0.252836,0.256407,0.231407,0.301407,0.249589,0.301407,0.288074,0.309185,0.277561,0.235952,0.300157,0.342945,0.268907,0.33974,0.323074,0.292945,0.320693,0.245043,0.335253,0.316407,0.261407,0.297032,0.293172,0.30224,0.303907,0.263225,0.323074,0.306407,0.350157,0.262657,0.343907,0.343907,0.365782,0.336407,0.372316,0.336407,0.366022,0.376862,0.345693,0.359185,0.376407,0.37724,0.404484,0.356407,0.370296,0.370296,0.431407,0.339099,0.219642,-0.093593,-0.00068892,-0.043593,-0.0448228,-0.018593,-0.068593,-0.0434909,-0.018593,-0.068593,-0.0585321,-0.068593,-0.0523134,-0.0361997,-0.018593,-0.0196841,-0.0186602,-0.018593,-0.018593,nan,nan,nan,nan,nan,nan,nan,nan,nan,nan,nan,nan,nan,nan,nan,nan,nan,nan,nan,nan,nan,nan,nan,nan,nan,nan,nan,nan,nan,nan,nan,nan,nan,nan,nan,nan,nan,nan,nan,nan,nan,nan,nan,nan,nan,nan,nan,nan,nan,nan,nan,nan,nan,nan,nan,nan,nan,nan,nan,nan,nan,nan,nan,nan,nan,nan,nan,nan,nan,nan,nan,nan,nan,nan,nan,nan,nan,nan,nan,nan,nan,nan,nan,nan,nan,nan,nan,nan,nan,nan,nan,nan,nan,nan,nan,nan,nan,nan,nan,nan,nan,nan,nan,nan,nan,nan,nan,nan,nan,nan,nan,nan,nan,nan,nan,nan,nan,nan,nan,nan,nan,nan,nan,nan,nan,nan,nan,nan,nan,nan,nan,nan,nan,nan,nan,nan,nan,nan,nan,nan,nan,nan,nan,nan,nan,nan,nan,nan,nan,nan,nan,nan,nan,nan,nan,nan,nan,nan,nan,nan,nan,nan,nan,nan,nan,nan,nan,nan,nan
0.331407,0.331407,0.331407,0.331407,0.331407,0.331407,0.323074,0.331407,0.331407,0.33181,0.331407,0.331407,0.361407,0.351407,0.352836,0.359978,0.348074,0.372701,0.374329,0.381407,0.363241,0.381407,0.40868,0.401407,0.381407,0.381407,0.381407,0.381407,0.381407,0.231407,0.301407,0.356407,0.381407,0.381407,0.381407,0.381407,0.381407,0.356059,0.381407,0.281407,0.381407,0.381407,0.356407,0.300157,0.371407,0.251407,0.368907,0.381407,0.381407,0.311407,0.381407,0.335952,0.263225,0.368907,0.270296,0.33974,0.304936,0.273074,0.359978,0.298074,0.28974,0.293907,0.311407,0.268907,0.35224,0.281407,0.23974,0.281407,0.211407,0.218907,0.285952,0.267121,0.28855,0.242518,0.274264,0.212657,0.267771,0.242945,0.306407,0.306407,0.263225,0.326407,0.30474,0.285574,0.285952,0.295043,0.310574,0.32474,0.306407,0.285574,0.291407,0.31474,0.322316,0.270296,0.375157,0.304484,0.346113,0.327836,0.356407,0.361407,0.378074,0.367121,0.389099,0.33974,0.366022,0.361407,0.387657,0.363225,0.36474,0.393907,0.434978,0.38974,0.198907,-0.093593,-0.0176806,-0.018593,-0.068593,-0.018593,-0.068593,-0.0439348,-0.018593,-0.068593,-0.0589592,-0.068593,-0.0552986,-0.0401624,-0.018593,-0.0209507,-0.0189051,-0.018593,-0.018593,nan,nan,nan,nan,nan,nan,nan,nan,nan,nan,nan,nan,nan,nan,nan,nan,nan,nan,nan,nan,nan,nan,nan,nan,nan,nan,nan,nan,nan,nan,nan,nan,nan,nan,nan,nan,nan,nan,nan,nan,nan,nan,nan,nan,nan,nan,nan,nan,nan,nan,nan,nan,nan,nan,nan,nan,nan,nan,nan,nan,nan,nan,nan,nan,nan,nan,nan,nan,nan,nan,nan,nan,nan,nan,nan,nan,nan,nan,nan,nan,nan,nan,nan,nan,nan,nan,nan,nan,nan,nan,nan,nan,nan,nan,nan,nan,nan,nan,nan,nan,nan,nan,nan,nan,nan,nan,nan,nan,nan,nan,nan,nan,nan,nan,nan,nan,nan,nan,nan,nan,nan,nan,nan,nan,nan,nan,nan,nan,nan,nan,nan,nan,nan,nan,nan,nan,nan,nan,nan,nan,nan,nan,nan,nan,nan,nan,nan,nan,nan,nan,nan,nan,nan,nan,nan,nan,nan,nan,nan,nan,nan,nan,nan,nan,nan,nan,nan,nan,nan
0.331407,0.31474,0.331407,0.331407,0.331407,0.331407,0.311407,0.331407,0.324738,0.328872,0.335133,0.331407,0.350157,0.381407,0.381407,0.381407,0.381407,0.381407,0.381407,0.381407,0.381407,0.148074,0.331407,0.36474,0.356407,0.381407,0.381407,0.368907,0.293907,0.274264,0.36474,0.351407,0.368907,0.371407,0.381407,0.381407,0.381407,0.381407,0.251407,0.231407,0.225851,0.193907,0.219868,0.35868,0.36474,0.343907,0.351407,0.368907,0.361407,0.381407,0.381407,0.248074,0.303629,0.313907,0.306407,0.221407,0.297032,0.343907,0.306407,0.292121,0.381407,0.309185,0.299589,0.381407,0.299589,0.298074,0.291407,0.30868,0.281407,0.209185,0.277561,0.175851,0.297032,0.241407,0.253629,0.252836,0.273715,0.281407,0.268907,0.274264,0.242518,0.277561,0.300157,0.277561,0.281407,0.298074,0.300638,0.327561,0.306407,0.285574,0.306407,0.31355,0.331407,0.304134,0.358074,0.33855,0.328629,0.356407,0.33974,0.335253,0.356407,0.350157,0.373074,0.37724,0.37474,0.381407,0.381407,0.378074,0.372316,0.373074,0.404484,0.40868,0.20532,-0.118593,-0.068593,-0.068593,-0.068593,-0.018593,-0.0519264,-0.0472561,-0.018593,-0.068593,-0.0592553,-0.068593,-0.068593,-0.0428477,-0.018593,-0.0221758,-0.0191684,-0.018598,-0.018593,-0.018593,nan,nan,nan,nan,nan,nan,nan,nan,nan,nan,nan,nan,nan,nan,nan,nan,nan,nan,nan,nan,nan,nan,nan,nan,nan,nan,nan,nan,nan,nan,nan,nan,nan,nan,nan,nan,nan,nan,nan,nan,nan,nan,nan,nan,nan,nan,nan,nan,nan,nan,nan,nan,nan,nan,nan,nan,nan,nan,nan,nan,nan,nan,nan,nan,nan,nan,nan,nan,nan,nan,nan,nan,nan,nan,nan,nan,nan,nan,nan,nan,nan,nan,nan,nan,nan,nan,nan,nan,nan,nan,nan,nan,nan,nan,nan,nan,nan,nan,nan,nan,nan,nan,nan,nan,nan,nan,nan,nan,nan,nan,nan,nan,nan,nan,nan,nan,nan,nan,nan,nan,nan,nan,nan,nan,nan,nan,nan,nan,nan,nan,nan,nan,nan,nan,nan,nan,nan,nan,nan,nan,nan,nan,nan,nan,nan,nan,nan,nan,nan,nan,nan,nan,nan,nan,nan,nan,nan,nan,nan,nan,nan,nan,nan,nan,nan,nan,nan,nan
0.331407,0.306407,0.325157,0.31474,0.306407,0.331407,0.316407,0.318907,0.311804,0.316969,0.329335,0.331407,0.345693,0.356407,0.331407,0.348074,0.381407,0.381407,0.359185,0.368907,0.348074,0.356407,0.36474,0.201407,0.331407,0.381407,0.381407,0.361407,0.351407,0.25224,0.286407,0.361407,0.331407,0.361407,0.343907,0.359978,0.36474,0.381407,0.381407,0.381407,0.374264,0.218907,0.251407,0.369869,0.381407,0.273074,0.370693,0.350157,0.343907,0.381407,0.3404,0.302836,0.186963,0.301407,0.218074,0.266022,0.291407,0.356407,0.281407,0.292945,0.173074,0.253629,0.292121,0.335574,0.336963,0.306407,0.30868,0.304134,0.331407,0.275157,0.341407,0.301407,0.281407,0.251407,0.30224,0.217771,0.281407,0.269868,0.269868,0.296407,0.256407,0.313225,0.31474,0.249589,0.304936,0.273715,0.273715,0.299264,0.303282,0.26474,0.294565,0.335253,0.362657,0.309532,0.362657,0.340782,0.334532,0.35474,0.369642,0.33855,0.369642,0.366022,0.373074,0.36474,0.375851,0.365782,0.398074,0.381407,0.385253,0.401407,0.392945,0.399589,0.203337,-0.125736,-0.118593,-0.101926,-0.068593,-0.0728529,-0.031093,-0.068593,-0.018593,-0.068593,-0.0605551,-0.0635566,-0.068593,-0.0445188,-0.018593,-0.0229347,-0.0193284,-0.0185946,-0.018593,-0.0174808,nan,nan,nan,nan,nan,nan,nan,nan,nan,nan,nan,nan,nan,nan,nan,nan,nan,nan,nan,nan,nan,nan,nan,nan,nan,nan,nan,nan,nan,nan,nan,nan,nan,nan,nan,nan,nan,nan,nan,nan,nan,nan,nan,nan,nan,nan,nan,nan,nan,nan,nan,nan,nan,nan,nan,nan,nan,nan,nan,nan,nan,nan,nan,nan,nan,nan,nan,nan,nan,nan,nan,nan,nan,nan,nan,nan,nan,nan,nan,nan,nan,nan,nan,nan,nan,nan,nan,nan,nan,nan,nan,nan,nan,nan,nan,nan,nan,nan,nan,nan,nan,nan,nan,nan,nan,nan,nan,nan,nan,nan,nan,nan,nan,nan,nan,nan,nan,nan,nan,nan,nan,nan,nan,nan,nan,nan,nan,nan,nan,nan,nan,nan,nan,nan,nan,nan,nan,nan,nan,nan,nan,nan,nan,nan,nan,nan,nan,nan,nan,nan,nan,nan,nan,nan,nan,nan,nan,nan,nan,nan,nan,nan,nan,nan,nan,nan,nan,nan
0.318907,0.293907,0.321407,0.291407,0.301407,0.28974,0.291407,0.297417,0.295114,0.297982,0.313122,0.330717,0.331407,0.356407,0.331407,0.331407,0.331407,0.336963,0.331407,0.331407,0.331407,0.331407,0.331407,0.331407,0.381407,0.381407,0.381407,0.367121,0.345693,0.356407,0.331407,0.331407,0.331407,0.368907,0.361407,0.342518,0.331407,0.261407,0.231407,0.181407,0.36474,0.381407,0.271407,0.276861,0.302836,0.31474,0.320296,0.371407,0.346407,0.331407,0.373074,0.381407,0.298074,0.25833,0.187657,0.254484,0.288074,0.353629,0.311407,0.352836,0.31474,0.306407,0.309978,0.268907,0.212176,0.27724,0.250638,0.262176,0.306407,0.298074,0.311407,0.293907,0.331407,0.311407,0.381407,0.262657,0.312176,0.21474,0.296407,0.317121,0.26474,0.278074,0.28855,0.26474,0.347196,0.226407,0.25868,0.326862,0.296113,0.323074,0.31355,0.304936,0.321407,0.266701,0.312986,0.338907,0.331407,0.359978,0.351995,0.378629,0.354936,0.370296,0.397032,0.37474,0.384348,0.378282,0.391407,0.365782,0.406407,0.381407,0.395693,0.419642,0.163303,-0.11145,-0.11145,-0.128593,-0.101926,-0.168593,-0.018593,-0.068593,-0.018593,-0.068593,-0.068593,-0.0651706,-0.068593,-0.0471735,-0.018593,-0.018593,-0.0198988,-0.0179959,-0.0111592,0.0648891,0.180023,0.18622,0.198049,0.203079,nan,nan,nan,nan,nan,nan,nan,nan,nan,nan,nan,nan,nan,nan,nan,nan,nan,nan,nan,nan,nan,nan,nan,nan,nan,nan,nan,nan,0.309155,0.314419,0.323904,0.332251,0.333919,0.332238,0.331516,0.331494,0.3315,0.331534,0.331685,0.331407,nan,nan,nan,nan,nan,nan,nan,nan,nan,nan,nan,nan,nan,nan,nan,nan,nan,nan,nan,nan,nan,nan,nan,nan,nan,nan,nan,nan,nan,nan,nan,nan,nan,nan,nan,nan,nan,nan,nan,nan,nan,nan,nan,nan,nan,nan,nan,nan,nan,nan,nan,nan,nan,nan,nan,nan,nan,nan,nan,nan,nan,nan,nan,nan,nan,nan,nan,nan,nan,nan,nan,nan,nan,nan,nan,nan,nan,nan,nan,nan,nan,nan,nan,nan,nan,nan,nan,nan,nan,nan,nan,nan,nan,nan,nan,nan,nan,nan,nan,nan,nan,nan,nan,nan,nan,nan,nan,nan,nan,nan,nan,nan,nan,nan,nan,nan,nan,nan,nan,nan,nan,nan,nan,nan
0.331407,0.298074,0.306407,0.298074,0.306407,0.281407,0.281407,0.281407,0.281407,0.281407,0.297965,0.316366,0.330191,0.331407,0.331407,0.331407,0.331407,0.331407,0.331407,0.325157,0.331407,0.331407,0.331407,0.332414,0.343907,0.345693,0.351407,0.331407,0.343907,0.361407,0.343907,0.381407,0.356477,0.381407,0.359532,0.331407,0.331407,0.36474,0.343907,0.331407,0.331407,0.381407,0.381407,0.318907,0.281407,0.159185,0.231407,0.248074,0.278282,0.320296,0.359185,0.381407,0.381407,0.231407,0.262657,0.223074,0.276144,0.362176,0.299054,0.300157,0.281407,0.261407,0.268074,0.372316,0.235253,0.300638,0.331407,0.23974,0.23474,0.217121,0.187657,0.286407,0.257878,0.249589,0.271407,0.251407,0.300638,0.241407,0.326862,0.301407,0.28974,0.285574,0.31474,0.256407,0.312657,0.273074,0.286963,0.309978,0.317121,0.328074,0.312176,0.334532,0.33667,0.312176,0.337657,0.349589,0.348074,0.334185,0.35246,0.365407,0.344565,0.370881,0.377059,0.372316,0.390782,0.381407,0.402836,0.385952,0.411407,0.396792,0.416022,0.43667,0.159668,-0.13526,-0.104307,-0.143593,-0.118593,-0.093593,-0.093593,-0.088593,-0.118593,-0.018593,-0.068593,-0.0672712,-0.068593,-0.0512647,-0.0375588,-0.018593,-0.0198136,-0.0108067,0.0247267,0.120554,0.172965,0.184517,0.194904,0.200807,0.203776,nan,nan,nan,nan,nan,nan,nan,nan,nan,nan,nan,nan,nan,nan,nan,nan,nan,nan,nan,nan,nan,nan,nan,nan,nan,nan,0.306831,0.311196,0.316833,0.324975,0.332345,0.335544,0.335659,0.335322,0.335335,0.335708,0.336761,0.338612,0.341241,0.345104,0.356405,nan,nan,nan,nan,nan,nan,nan,nan,nan,nan,nan,nan,nan,nan,nan,nan,nan,nan,nan,nan,nan,nan,nan,nan,nan,nan,nan,nan,nan,nan,nan,nan,nan,nan,nan,nan,nan,nan,nan,nan,nan,nan,nan,nan,nan,nan,nan,nan,nan,nan,nan,nan,nan,nan,nan,nan,nan,nan,nan,nan,nan,nan,nan,nan,nan,nan,nan,nan,nan,nan,nan,nan,nan,nan,nan,nan,nan,nan,nan,nan,nan,nan,nan,nan,nan,nan,nan,nan,nan,nan,nan,nan,nan,nan,nan,nan,nan,nan,nan,nan,nan,nan,nan,nan,nan,nan,nan,nan,nan,nan,nan,nan,nan,nan,nan,nan,nan,nan,nan,nan,nan,nan
0.306407,0.281407,0.30833,0.298074,0.301407,0.281407,0.281407,0.281407,0.281407,0.281407,0.306407,0.306058,0.321369,0.331407,0.331407,0.331407,0.331407,0.331407,0.331407,0.298074,0.306407,0.312538,0.317,0.323653,0.331407,0.331407,0.331407,0.331407,0.331407,0.356407,0.331407,0.35461,0.381407,0.37724,0.35224,0.331407,0.331407,0.356407,0.331407,0.331407,0.331407,0.381407,0.381407,0.370296,0.381407,0.381407,0.381407,0.406407,0.385574,0.398074,0.368074,0.390498,0.381407,0.298074,0.26474,0.349264,0.256407,0.281407,0.293907,0.30224,0.289099,0.21474,0.343907,0.298074,0.310574,0.236407,0.34474,0.295043,0.269868,0.23855,0.312176,0.286963,0.31474,0.250638,0.273074,0.217121,0.258074,0.211407,0.28974,0.23855,0.247032,0.228466,0.267121,0.236963,0.31355,0.216407,0.241407,0.34474,0.299264,0.325157,0.291407,0.334978,0.33474,0.31474,0.334532,0.334039,0.347032,0.350157,0.376645,0.370881,0.378907,0.370043,0.386169,0.351995,0.385755,0.38474,0.385755,0.38855,0.397032,0.415617,0.407723,0.440103,0.172956,-0.128593,-0.118593,-0.118593,-0.118593,-0.112343,-0.106093,-0.108593,-0.098593,-0.078593,-0.093593,-0.068593,-0.0623704,-0.068593,-0.0395894,-0.018593,-0.0139997,0.00802915,0.059107,0.12666,0.163104,0.17825,0.189632,0.197385,0.202093,0.206701,nan,nan,nan,nan,nan,nan,nan,nan,nan,nan,nan,nan,nan,nan,nan,nan,nan,nan,nan,nan,nan,nan,nan,nan,0.303578,0.309451,0.314222,0.319957,0.32755,0.334872,0.339428,0.341264,0.341876,0.342175,0.342842,0.34452,0.347386,0.351493,0.357441,0.367817,nan,nan,nan,nan,nan,nan,nan,nan,nan,nan,nan,nan,nan,nan,nan,nan,nan,nan,nan,nan,nan,nan,nan,nan,nan,nan,nan,nan,nan,nan,nan,nan,nan,nan,nan,nan,nan,nan,nan,nan,nan,nan,nan,nan,nan,nan,nan,nan,nan,nan,nan,nan,nan,nan,nan,nan,nan,nan,nan,nan,nan,nan,nan,nan,nan,nan,nan,nan,nan,nan,nan,nan,nan,nan,nan,nan,nan,nan,nan,nan,nan,nan,nan,nan,nan,nan,nan,nan,nan,nan,nan,nan,nan,nan,nan,nan,nan,nan,nan,nan,nan,nan,nan,nan,nan,nan,nan,nan,nan,nan,nan,nan,nan,nan,nan,nan,nan,nan,nan,nan,nan,nan
0.281407,0.291407,0.281407,0.31474,0.281407,0.290498,0.281407,0.281407,0.281407,0.281407,0.281407,0.281407,0.331407,0.331407,0.331407,0.331407,0.331407,0.331407,0.295693,0.281407,0.281407,0.30016,0.281407,0.331407,0.31474,0.331407,0.326793,0.333632,0.331407,0.331407,0.381407,0.381407,0.381407,0.358074,0.33855,0.331407,0.348074,0.371407,0.36474,0.356407,0.371407,0.381407,0.381407,0.374264,0.381407,0.393907,0.401407,0.418907,0.418907,0.431407,0.425157,0.417121,0.431407,0.431407,0.381407,0.443907,0.423512,0.38974,0.35474,0.320693,0.306407,0.267121,0.299054,0.250638,0.242121,0.23974,0.288074,0.268074,0.240498,0.242518,0.310574,0.256407,0.348074,0.26474,0.323074,0.28855,0.26474,0.286407,0.321407,0.281407,0.273074,0.269868,0.251407,0.235253,0.278907,0.243907,0.225851,0.305216,0.281407,0.303629,0.30224,0.303282,0.303629,0.292945,0.331407,0.320881,0.309978,0.341933,0.36376,0.33974,0.374264,0.369868,0.405407,0.387289,0.406407,0.384185,0.400157,0.416407,0.412986,0.426407,0.428466,0.43855,0.211037,-0.0652597,-0.118593,-0.101926,-0.106093,-0.0958658,-0.093593,-0.0900216,-0.081093,-0.062343,-0.068593,-0.068593,-0.068593,-0.068593,-0.043593,-0.0192235,-0.018593,0.0284109,0.0751886,0.123315,0.152866,0.169388,0.182073,0.19149,0.197784,0.203201,nan,nan,nan,nan,nan,nan,nan,nan,nan,nan,nan,nan,nan,nan,nan,nan,nan,nan,nan,nan,nan,nan,nan,nan,0.306072,0.312237,0.31747,0.323505,0.331117,0.338799,0.344535,0.347853,0.349366,0.349845,0.350366,0.351934,0.35489,0.359131,0.364776,0.372603,nan,nan,nan,nan,nan,nan,nan,nan,nan,nan,nan,nan,nan,nan,nan,nan,nan,nan,nan,nan,nan,nan,nan,nan,nan,nan,nan,nan,nan,nan,nan,nan,nan,nan,nan,nan,nan,nan,nan,nan,nan,nan,nan,nan,nan,nan,nan,nan,nan,nan,nan,nan,nan,nan,nan,nan,nan,nan,nan,nan,nan,nan,nan,nan,nan,nan,nan,nan,nan,nan,nan,nan,nan,nan,nan,nan,nan,nan,nan,nan,nan,nan,nan,nan,nan,nan,nan,nan,nan,nan,nan,nan,nan,nan,nan,nan,nan,nan,nan,nan,nan,nan,nan,nan,nan,nan,nan,nan,nan,nan,nan,nan,nan,nan,nan,nan,nan,nan,nan,nan,nan,nan
0.281407,0.281407,0.281407,0.331407,0.081407,0.281407,0.281407,0.281407,0.281407,0.281407,0.287864,0.281407,0.331407,0.331407,0.331407,0.331407,0.331407,0.0967916,0.281407,0.281407,0.281407,0.298074,0.293907,0.331407,0.281407,0.305608,0.311251,0.322831,0.335481,0.348074,0.344892,0.356407,0.225157,0.345693,0.331407,0.331407,0.331407,0.351843,0.352942,0.350966,0.404134,0.381407,0.368907,0.348074,0.374264,0.381407,0.381407,0.431407,0.409185,0.400157,0.402836,0.381407,0.381407,0.381407,0.352836,0.121407,0.061407,0.376407,0.373074,0.370296,0.354484,0.331407,0.36474,0.350157,0.356407,0.356407,0.318907,0.328074,0.248074,0.275157,0.28474,0.26474,0.291407,0.231407,0.302836,0.23974,0.281407,0.301407,0.26474,0.298074,0.286407,0.311407,0.285574,0.281407,0.327561,0.256407,0.245693,0.318907,0.323715,0.325525,0.295693,0.328629,0.326144,0.296792,0.347196,0.320296,0.340782,0.345296,0.368907,0.340782,0.366407,0.35246,0.38349,0.367771,0.376862,0.393407,0.403407,0.410253,0.412888,0.419502,0.426645,0.445043,0.199021,-0.0793073,-0.093593,-0.0894264,-0.087343,-0.0867749,-0.0878238,-0.0741486,-0.088593,-0.068593,-0.0519264,-0.062343,-0.0614502,-0.048593,-0.031093,-0.018593,-0.018593,0.031407,0.0814328,0.181407,0.181407,0.158273,0.181407,0.231407,0.181407,0.206407,0.231407,0.206407,0.231407,0.231407,0.206407,0.243907,0.236963,0.241407,0.236963,0.231407,0.251407,0.240498,0.248074,0.249589,0.267121,0.248074,0.253629,0.268907,0.268907,0.270296,0.270296,0.272316,0.290498,0.292518,0.301407,0.306407,0.309978,0.309185,0.321407,0.343907,0.331407,0.331407,0.331407,0.331407,0.331407,0.331407,0.362156,0.365912,0.37059,0.376169,0.381062,nan,nan,nan,nan,nan,nan,nan,nan,nan,nan,nan,nan,nan,nan,nan,nan,nan,nan,nan,nan,nan,nan,nan,nan,nan,nan,nan,nan,nan,nan,nan,nan,nan,nan,nan,nan,nan,nan,nan,nan,nan,nan,nan,nan,nan,nan,nan,nan,nan,nan,nan,nan,nan,nan,nan,nan,nan,nan,nan,nan,nan,nan,nan,nan,nan,nan,nan,nan,nan,nan,nan,nan,nan,nan,nan,nan,nan,nan,nan,nan,nan,nan,nan,nan,nan,nan,nan,nan,nan,nan,nan,nan,nan,nan,nan,nan,nan,nan,nan,nan,nan,nan,nan,nan,nan,nan,nan,nan,nan,nan,nan,nan,nan,nan,nan,nan,nan,nan,nan,nan,nan
0.281407,0.281407,0.281407,0.281407,0.281407,0.281407,0.281407,0.281407,0.281407,0.281407,0.281407,0.281407,0.306407,0.331407,0.331407,0.318917,0.331407,0.268907,0.298074,0.318907,0.295693,0.281407,0.281407,0.281407,0.281407,0.281407,0.281407,0.313561,0.328495,0.336929,0.338591,0.348074,0.362657,0.252836,0.331407,0.381407,0.368907,0.367121,0.381407,0.381407,0.195693,0.31474,0.256407,0.35224,0.21474,0.381407,0.372485,0.381407,0.281407,0.139099,0.234978,0.246407,0.202836,0.290782,0.277836,0.374264,0.199589,0.118907,0.285952,0.20474,0.295043,0.16474,0.251861,0.292518,0.225157,0.313225,0.186963,0.281407,0.256407,0.298074,0.248074,0.256407,0.317771,0.272316,0.381407,0.309978,0.345693,0.295043,0.331407,0.30474,0.319869,0.291407,0.29474,0.299589,0.301995,0.281407,0.259185,0.334978,0.313225,0.334978,0.331407,0.342121,0.368907,0.319869,0.36474,0.32724,0.35474,0.367121,0.373512,0.369642,0.386169,0.375157,0.393907,0.400455,0.403629,0.411407,0.415617,0.435253,0.429233,0.440931,0.448074,0.465498,0.24119,-0.0475404,-0.0864502,-0.0913203,-0.0894264,-0.0793073,-0.0741486,-0.0719264,-0.0458658,-0.0458658,-0.0507359,-0.0400216,-0.043593,-0.018593,-0.0257359,0.00474029,0.0456927,0.05833,0.0698685,0.123074,0.131407,0.156407,0.170296,0.200157,0.18974,0.206407,0.201407,0.206407,0.223074,0.217121,0.221407,0.228282,0.227836,0.237289,0.228282,0.22474,0.228775,0.228466,0.225851,0.236963,0.234039,0.237657,0.246407,0.248074,0.259532,0.268907,0.268907,0.30224,0.281407,0.30833,0.323074,0.325157,0.345693,0.318907,0.33855,0.361407,0.356407,0.381407,0.381407,0.381407,0.381407,0.381407,0.381407,0.372321,0.375685,0.379145,0.381407,nan,nan,nan,nan,nan,nan,nan,nan,nan,nan,nan,nan,nan,nan,nan,nan,nan,nan,nan,nan,nan,nan,nan,nan,nan,nan,nan,nan,nan,nan,nan,nan,nan,nan,nan,nan,nan,nan,nan,nan,nan,nan,nan,nan,nan,nan,nan,nan,nan,nan,nan,nan,nan,nan,nan,nan,nan,nan,nan,nan,nan,nan,nan,nan,nan,nan,nan,nan,nan,nan,nan,nan,nan,nan,nan,nan,nan,nan,nan,nan,nan,nan,nan,nan,nan,nan,nan,nan,nan,nan,nan,nan,nan,nan,nan,nan,nan,nan,nan,nan,nan,nan,nan,nan,nan,nan,nan,nan,nan,nan,nan,nan,nan,nan,nan,nan,nan,nan,nan,nan,nan
0.300157,0.28974,0.281407,0.281407,0.281407,0.281407,0.281407,0.281407,0.281407,0.281407,0.281407,0.281407,0.30149,0.316304,0.323419,0.320129,0.331407,0.331407,0.331407,0.325157,0.28855,0.281407,0.281407,0.324264,0.281407,0.281407,0.331407,0.310026,0.331407,0.331407,0.331407,0.331407,0.331407,0.331407,0.331407,0.356407,0.341407,0.331407,0.342105,0.352836,0.343907,0.356407,0.371407,0.352836,0.356407,0.381407,0.381407,0.381407,0.381407,0.381407,0.38855,0.317121,0.225157,0.267771,0.285253,0.299054,0.278074,0.223074,0.222583,0.318907,0.25224,0.158074,0.229026,0.217771,0.196792,0.219868,0.156407,0.288074,0.172316,0.26474,0.161407,0.223074,0.212657,0.227836,0.226407,0.23974,0.23974,0.25868,0.235952,0.235253,0.269868,0.231407,0.262176,0.248074,0.260574,0.276407,0.209185,0.265782,0.25868,0.285253,0.295296,0.300157,0.31474,0.281407,0.317121,0.311407,0.340103,0.336407,0.356407,0.342518,0.366407,0.348074,0.381407,0.383581,0.389302,0.400972,0.402561,0.413407,0.428907,0.431407,0.442277,0.459407,0.231861,-0.0900216,-0.088593,-0.0752597,-0.0602597,-0.0644264,-0.0519264,-0.0458658,-0.0471645,-0.043593,-0.04167,-0.027684,-0.00609304,0.00787755,0.0369625,0.0135498,0.0708807,0.061407,0.0730736,0.107723,0.117771,0.128907,0.133907,0.143907,0.166407,0.16355,0.184532,0.201407,0.192121,0.199054,0.199054,0.212657,0.218907,0.220881,0.231407,0.22724,0.234348,0.243407,0.238907,0.246113,0.23974,0.251995,0.25868,0.26474,0.288074,0.274264,0.29474,0.296407,0.310574,0.309185,0.30833,0.31474,0.31474,0.331407,0.356407,0.351407,0.361407,0.381407,0.381407,0.381407,0.374286,0.37474,0.375929,0.377625,0.379437,0.380925,0.381407,nan,nan,nan,nan,nan,nan,nan,nan,nan,nan,nan,nan,nan,nan,nan,nan,nan,nan,nan,nan,nan,nan,nan,nan,nan,nan,nan,nan,nan,nan,nan,nan,nan,nan,nan,nan,nan,nan,nan,nan,nan,nan,nan,nan,nan,nan,nan,nan,nan,nan,nan,nan,nan,nan,nan,nan,nan,nan,nan,nan,nan,nan,nan,nan,nan,nan,nan,nan,nan,nan,nan,nan,nan,nan,nan,nan,nan,nan,nan,nan,nan,nan,nan,nan,nan,nan,nan,nan,nan,nan,nan,nan,nan,nan,nan,nan,nan,nan,nan,nan,nan,nan,nan,nan,nan,nan,nan,nan,nan,nan,nan,nan,nan,nan,nan,nan,nan,nan,nan,nan,nan
0.30868,0.281407,0.293907,0.281407,0.281407,0.281407,0.281407,0.281407,0.281407,0.275851,0.281407,0.284446,0.294069,0.308296,0.316366,0.331407,0.331407,0.320296,0.293907,0.286963,0.281407,0.281407,0.281407,0.310574,0.281407,0.281407,0.294939,0.318907,0.320534,0.331407,0.331407,0.348074,0.345693,0.331407,0.331407,0.343907,0.331407,0.331407,0.331407,0.335253,0.331407,0.331407,0.331407,0.331407,0.36474,0.381407,0.371407,0.381407,0.381407,0.381407,0.381407,0.381407,0.381407,0.381407,0.381407,0.37724,0.356407,0.331407,0.335574,0.343907,0.331407,0.337657,0.342121,0.331407,0.276861,0.291407,0.156407,0.258074,0.21474,0.269642,0.223715,0.243907,0.225851,0.267771,0.27724,0.226407,0.270296,0.297032,0.273715,0.278282,0.285253,0.293172,0.256407,0.281407,0.275157,0.292518,0.27724,0.281407,0.285574,0.291407,0.319642,0.31474,0.331407,0.281407,0.349828,0.356407,0.347032,0.35474,0.373512,0.368249,0.387289,0.381407,0.387657,0.392518,0.401995,0.426645,0.416701,0.443172,0.458907,0.453907,0.459668,0.46474,0.206204,-0.0731385,-0.068593,-0.068593,-0.0638311,-0.0580667,-0.043593,-0.0352597,-0.021093,-0.00748193,0.00997839,0.00256081,0.028907,0.0462218,0.0331927,0.0617641,0.0469242,0.0697403,0.0849784,0.0846328,0.105649,0.106407,0.124,0.125851,0.117407,0.157213,0.150762,0.145043,0.167518,0.168074,0.181407,0.179555,0.201407,0.191407,0.198074,0.201862,0.21474,0.226645,0.226144,0.235574,0.238074,0.233788,0.267771,0.26474,0.263225,0.272316,0.292121,0.301407,0.306407,0.316407,0.33855,0.331407,0.359978,0.361407,0.36474,0.381407,0.381407,0.381407,0.381407,0.381407,0.381407,0.381407,0.381407,0.380665,0.38117,0.381398,0.381407,nan,nan,nan,nan,nan,nan,nan,nan,nan,nan,nan,nan,nan,nan,nan,nan,nan,nan,nan,nan,nan,nan,nan,nan,nan,nan,nan,nan,nan,nan,nan,nan,nan,nan,nan,nan,nan,nan,nan,nan,nan,nan,nan,nan,nan,nan,nan,nan,nan,nan,nan,nan,nan,nan,nan,nan,nan,nan,nan,nan,nan,nan,nan,nan,nan,nan,nan,nan,nan,nan,nan,nan,nan,nan,nan,nan,nan,nan,nan,nan,nan,nan,nan,nan,nan,nan,nan,nan,nan,nan,nan,nan,nan,nan,nan,nan,nan,nan,nan,nan,nan,nan,nan,nan,nan,nan,nan,nan,nan,nan,nan,nan,nan,nan,nan,nan,nan,nan,nan,nan,nan
0.313225,0.295693,0.295043,0.281407,0.281407,0.281407,0.281407,0.281407,0.281407,0.269868,0.281407,0.281998,0.287588,0.296978,0.331407,0.325157,0.331407,0.285952,0.281407,0.281407,0.281407,0.281407,0.281407,0.26474,0.267121,0.281407,0.289319,0.281407,0.306407,0.331407,0.331407,0.331407,0.331407,0.331407,0.331407,0.331407,0.331407,0.307699,0.331407,0.331407,0.306407,0.298074,0.331407,0.331407,0.331407,0.341407,0.343907,0.356407,0.368907,0.381407,0.381407,0.381407,0.381407,0.381407,0.381407,0.381407,0.372316,0.35833,0.339099,0.331407,0.331407,0.331407,0.331407,0.331407,0.331407,0.331407,0.331407,0.331407,0.331407,0.331407,0.331407,0.331407,0.331407,0.331407,0.348074,0.33855,0.381407,0.363225,0.381407,0.36474,0.381407,0.381407,0.374264,0.381407,0.381407,0.381407,0.381407,0.381407,0.381407,0.381407,0.381407,0.406407,0.38855,0.361407,0.385952,0.393907,0.41474,0.393907,0.420296,0.395693,0.418907,0.41474,0.404484,0.426861,0.412657,0.435253,0.43855,0.442121,0.436962,0.422583,0.448907,0.450157,0.195693,-0.0578788,-0.0362401,-0.018593,-0.0328788,-0.0297042,-0.018593,-0.00479994,0.00899317,0.012657,0.0221477,0.0249553,0.0341097,0.050157,0.0465585,0.0530736,0.0717295,0.0599784,0.0923444,0.0878586,0.092013,0.110717,0.125346,0.13302,0.137468,0.14474,0.14474,0.160717,0.160439,0.16474,0.185253,0.195923,0.201407,0.212176,0.200372,0.219868,0.222711,0.240498,0.254134,0.237929,0.262657,0.262986,0.259185,0.275525,0.278466,0.292945,0.289099,0.30868,0.311407,0.331407,0.320296,0.33855,0.337657,0.33974,0.331407,0.356407,0.381407,0.378746,0.381663,0.382369,0.382237,0.382017,0.38194,0.381999,0.382027,0.381826,0.381465,nan,nan,nan,nan,nan,nan,nan,nan,nan,nan,nan,nan,nan,nan,nan,nan,nan,nan,nan,nan,nan,nan,nan,nan,nan,nan,nan,nan,nan,nan,nan,nan,nan,nan,nan,nan,nan,nan,nan,nan,nan,nan,nan,nan,nan,nan,nan,nan,nan,nan,nan,nan,nan,nan,nan,nan,nan,nan,nan,nan,nan,nan,nan,nan,nan,nan,nan,nan,nan,nan,nan,nan,nan,nan,nan,nan,nan,nan,nan,nan,nan,nan,nan,nan,nan,nan,nan,nan,nan,nan,nan,nan,nan,nan,nan,nan,nan,nan,nan,nan,nan,nan,nan,nan,nan,nan,nan,nan,nan,nan,nan,nan,nan,nan,nan,nan,nan,nan,nan,nan,nan
0.313225,0.281407,0.295693,0.301407,0.281407,0.302836,0.281407,0.281407,0.281407,0.281407,0.281407,0.281407,0.284036,0.281407,0.281407,0.28974,0.291407,0.281407,0.281407,0.281407,0.281407,0.281407,0.281407,0.261407,0.261407,0.270882,0.280815,0.296691,0.312366,0.322959,0.331407,0.331407,0.331407,0.326954,0.331407,0.331407,0.331407,0.331407,0.331407,0.317771,0.295693,0.311407,0.31474,0.328389,0.331407,0.331407,0.331407,0.331407,0.36474,0.381407,0.381407,0.381407,0.381407,0.381407,0.346407,0.381407,0.37724,0.348074,0.331407,0.312657,0.324264,0.331407,0.331407,0.325157,0.331407,0.331407,0.331407,0.331407,0.318907,0.331407,0.331407,0.331407,0.331407,0.331407,0.337657,0.33974,0.356407,0.31355,0.260574,0.274264,0.306407,0.226862,0.271407,0.260819,0.22474,0.260952,0.256407,0.203282,0.268249,0.24023,0.275157,0.275851,0.283788,0.293907,0.29445,0.29599,0.28855,0.316701,0.326645,0.320296,0.348715,0.331407,0.35868,0.353907,0.353907,0.36474,0.359532,0.372032,0.393907,0.368074,0.325851,0.336407,0.141752,-0.0369264,-0.0346645,-0.0275216,-0.0262853,-0.0215342,-0.0205161,-0.00859304,-0.00344153,0.00918474,0.01171,0.0211128,0.033407,0.0281812,0.0486483,0.0497403,0.0499255,0.0756377,0.063665,0.0980736,0.092013,0.0959231,0.112441,0.129794,0.134532,0.141752,0.155545,0.150762,0.153074,0.16474,0.165336,0.166592,0.189099,0.188225,0.196624,0.20532,0.205217,0.219502,0.218907,0.23974,0.223715,0.253282,0.266022,0.270693,0.290498,0.28974,0.311407,0.326862,0.318907,0.331407,0.33974,0.361407,0.361407,0.359978,0.367121,0.367121,0.398074,0.381407,0.381407,0.391407,0.381407,0.381407,0.381407,0.383711,0.384152,0.384269,0.383447,nan,nan,nan,nan,nan,nan,nan,nan,nan,nan,nan,nan,nan,nan,nan,nan,nan,nan,nan,nan,nan,nan,nan,nan,nan,nan,nan,nan,nan,nan,nan,nan,nan,nan,nan,nan,nan,nan,nan,nan,nan,nan,nan,nan,nan,nan,nan,nan,nan,nan,nan,nan,nan,nan,nan,nan,nan,nan,nan,nan,nan,nan,nan,nan,nan,nan,nan,nan,nan,nan,nan,nan,nan,nan,nan,nan,nan,nan,nan,nan,nan,nan,nan,nan,nan,nan,nan,nan,nan,nan,nan,nan,nan,nan,nan,nan,nan,nan,nan,nan,nan,nan,nan,nan,nan,nan,nan,nan,nan,nan,nan,nan,nan,nan,nan,nan,nan,nan,nan,nan,nan
0.31474,0.281407,0.281407,0.301407,0.302836,0.306407,0.281407,0.281407,0.281407,0.281407,0.281407,0.281407,0.281407,0.281407,0.281407,0.281407,0.281407,0.281407,0.281407,0.281407,0.281407,0.281407,0.26474,0.250638,0.231407,0.267584,0.276392,0.288871,0.303137,0.314957,0.331407,0.331407,0.331407,0.331407,0.331407,0.217121,0.191407,-0.0352597,0.276407,0.26355,0.281407,0.298074,0.331407,0.324402,0.331407,0.331407,0.331407,0.356407,0.381407,0.292518,0.192121,0.225157,0.381407,0.252836,0.109185,0.159978,0.142344,0.156407,0.133407,0.179555,0.250157,0.181407,0.142121,0.173074,0.131407,0.21376,0.134532,0.18349,0.123074,0.196407,0.14023,0.178629,0.159978,0.231407,0.135253,0.186407,0.169642,0.248074,0.249054,0.306407,0.272032,0.275851,0.27474,0.286963,0.304134,0.298074,0.306407,0.33974,0.295693,0.351407,0.345043,0.361407,0.33855,0.381407,0.322316,0.30999,0.326407,0.381407,0.31474,0.331407,0.356407,0.331407,0.331407,0.346407,0.343907,0.33855,0.336407,0.331407,0.340498,0.331407,0.324264,0.340498,0.137657,-0.0331092,-0.0278523,-0.0301315,-0.040593,-0.028593,-0.0278523,-0.0162121,-0.000593042,-0.00140554,0.012657,0.0141656,0.0296212,0.0475834,0.0491489,0.0547403,0.0733424,0.0668908,0.0943102,0.0830736,0.0962218,0.107333,0.099407,0.123407,0.143907,0.160354,0.173407,0.167407,0.162888,0.181407,0.181407,0.189099,0.205481,0.211842,0.221407,0.220043,0.241407,0.245043,0.259532,0.256407,0.246113,0.271407,0.274264,0.281407,0.281407,0.281407,0.287657,0.298074,0.298074,0.31474,0.306407,0.31474,0.331407,0.331407,0.331407,0.36606,0.376013,0.38199,0.383022,0.382172,0.382118,0.383196,0.384624,0.385981,0.387317,0.38867,0.389682,nan,nan,nan,nan,nan,nan,nan,nan,nan,nan,nan,nan,nan,nan,nan,nan,nan,nan,nan,nan,nan,nan,nan,nan,nan,nan,nan,nan,nan,nan,nan,nan,nan,nan,nan,nan,nan,nan,nan,nan,nan,nan,nan,nan,nan,nan,nan,nan,nan,nan,nan,nan,nan,nan,nan,nan,nan,nan,nan,nan,nan,nan,nan,nan,nan,nan,nan,nan,nan,nan,nan,nan,nan,nan,nan,nan,nan,nan,nan,nan,nan,nan,nan,nan,nan,nan,nan,nan,nan,nan,nan,nan,nan,nan,nan,nan,nan,nan,nan,nan,nan,nan,nan,nan,nan,nan,nan,nan,nan,nan,nan,nan,nan,nan,nan,nan,nan,nan,nan,nan,nan
0.306407,0.281407,0.281407,0.306407,0.309978,0.192518,0.213225,0.0132251,0.281407,0.271537,0.281407,0.281407,0.281407,0.281407,0.281407,0.281407,0.281407,0.281407,0.281407,0.281407,0.281407,0.256407,0.231407,0.26474,0.231407,0.281407,0.281407,0.281407,0.298074,0.30349,0.331407,0.31474,0.331407,0.331407,0.331407,0.331407,0.193907,-0.018593,0.26474,0.291407,0.320296,0.293907,0.331407,0.331407,0.318907,0.331407,0.331407,0.331407,0.381407,0.381407,0.376407,0.381407,0.371407,0.381407,0.381407,0.381407,0.368907,0.353629,0.270881,0.259532,0.231407,0.271407,0.281407,0.281407,0.285952,0.281407,0.281407,0.281407,0.281407,0.287657,0.286407,0.28855,0.286963,0.298074,0.293907,0.311407,0.303629,0.323074,0.313225,0.321407,0.318907,0.316407,0.317121,0.324264,0.311407,0.325157,0.331407,0.325157,0.281407,0.306407,0.302836,0.26474,0.292945,0.26474,0.298074,0.281407,0.312176,0.276407,0.285952,0.295296,0.285253,0.301995,0.295043,0.29474,0.322316,0.299054,0.319502,0.299828,0.311962,0.312359,0.315782,0.324264,0.173074,0.0261438,0.00997839,0.00918474,-0.014593,-0.011093,-0.00668828,-0.00268395,0.00413423,0.0129859,0.0154979,0.029026,0.033907,0.0487983,0.0509722,0.0599784,0.0667011,0.097032,0.0843481,0.091407,0.104936,0.10868,0.118907,0.127407,0.112657,0.148074,0.140931,0.143907,0.14474,0.143907,0.143907,0.162176,0.16474,0.171407,0.206407,0.196407,0.211407,0.246407,0.254484,0.258074,0.268907,0.274264,0.28974,0.301407,0.319869,0.306407,0.321407,0.326862,0.337657,0.331407,0.348074,0.362657,0.367121,0.367121,0.348074,0.381407,0.402836,0.393907,0.381407,0.381407,0.381407,0.381407,0.398074,0.386659,0.389367,0.391443,0.393934,nan,nan,nan,nan,nan,nan,nan,nan,nan,nan,nan,nan,nan,nan,nan,nan,nan,nan,nan,nan,nan,nan,nan,nan,nan,nan,nan,nan,nan,nan,nan,nan,nan,nan,nan,nan,nan,nan,nan,nan,nan,nan,nan,nan,nan,nan,nan,nan,nan,nan,nan,nan,nan,nan,nan,nan,nan,nan,nan,nan,nan,nan,nan,nan,nan,nan,nan,nan,nan,nan,nan,nan,nan,nan,nan,nan,nan,nan,nan,nan,nan,nan,nan,nan,nan,nan,nan,nan,nan,nan,nan,nan,nan,nan,nan,nan,nan,nan,nan,nan,nan,nan,nan,nan,nan,nan,nan,nan,nan,nan,nan,nan,nan,nan,nan,nan,nan,nan,nan,nan,nan
0.298074,0.281407,0.281407,0.306407,0.291407,0.281407,0.281407,0.281407,0.281407,0.281407,0.281407,0.281407,0.281407,0.281407,0.281407,0.281407,0.281407,0.281407,0.281407,0.281407,0.281407,0.278525,0.323074,0.281407,0.281407,0.281407,0.281407,0.293907,0.287697,0.281407,0.293907,0.28855,0.306407,0.331407,0.331407,0.296873,0.280164,0.361407,0.350638,0.327561,0.331407,0.298074,0.31474,0.331407,0.318907,0.331407,0.331407,0.331407,0.374264,0.376861,0.374264,0.337657,0.359978,0.381407,0.322388,0.391407,0.37724,0.359978,0.315782,0.275157,0.275157,0.268907,0.270296,0.256407,0.272316,0.267121,0.252836,0.271407,0.270296,0.263225,0.281407,0.281407,0.281407,0.281407,0.281407,0.281407,0.276407,0.281407,0.248074,0.21474,0.253282,0.25224,0.242518,0.266022,0.25224,0.227836,0.231407,0.242518,0.234185,0.238074,0.252836,0.190498,0.243407,0.209978,0.241407,0.228466,0.235253,0.259185,0.231407,0.263907,0.249264,0.275851,0.284978,0.281407,0.318907,0.320296,0.328074,0.33667,0.328282,0.331407,0.328775,0.344565,0.209668,0.0459903,-0.00120174,-0.0376407,-0.046093,-0.0264878,-0.028593,-0.0324819,-0.0130375,-0.00192637,0.000851405,0.0286292,0.0369625,0.031407,0.0445649,0.0382251,0.0599784,0.0682491,0.0758514,0.116701,0.0791342,0.091407,0.0995888,0.105216,0.149054,0.122032,0.151995,0.176144,0.18667,0.178282,0.178466,0.228074,0.228775,0.218907,0.231407,0.223074,0.216022,0.220296,0.217771,0.198074,0.206407,0.201407,0.231407,0.231407,0.285187,0.295008,0.304311,0.312706,0.320152,0.327434,0.3355,0.343188,0.347588,0.348785,0.349794,0.350779,0.347803,0.339229,0.330697,0.329711,0.338703,0.354552,0.371567,0.384757,0.392295,0.396022,0.399968,nan,nan,nan,nan,nan,nan,nan,nan,nan,nan,nan,nan,nan,nan,nan,nan,nan,nan,nan,nan,nan,nan,nan,nan,nan,nan,nan,nan,nan,nan,nan,nan,nan,nan,nan,nan,nan,nan,nan,nan,nan,nan,nan,nan,nan,nan,nan,nan,nan,nan,nan,nan,nan,nan,nan,nan,nan,nan,nan,nan,nan,nan,nan,nan,nan,nan,nan,nan,nan,nan,nan,nan,nan,nan,nan,nan,nan,nan,nan,nan,nan,nan,nan,nan,nan,nan,nan,nan,nan,nan,nan,nan,nan,nan,nan,nan,nan,nan,nan,nan,nan,nan,nan,nan,nan,nan,nan,nan,nan,nan,nan,nan,nan,nan,nan,nan,nan,nan,nan,nan,nan
0.281407,0.281407,0.281407,0.281407,0.281407,0.281407,0.281407,0.281407,0.281407,0.281407,0.281407,0.281407,0.281407,0.281407,0.281407,0.259978,0.261407,0.268849,0.274369,0.27944,0.281726,0.281407,0.306407,0.267121,0.281407,0.271407,0.281407,0.281407,0.281872,0.281407,0.281407,0.281407,0.305149,0.315332,0.318769,0.331407,0.331407,0.348074,0.341407,0.331407,0.331407,0.309185,0.306407,0.331407,0.31474,0.312521,0.325719,0.381407,0.381407,0.381407,0.372316,0.356407,0.348074,0.361407,0.306407,0.206407,0.345693,0.347032,0.318074,0.278466,0.256407,0.268907,0.254134,0.243907,0.242518,0.243907,0.209978,0.242945,0.193907,0.21474,0.159978,0.186407,0.234978,0.18855,0.212657,0.204134,0.14474,0.201407,0.20474,0.13974,0.211407,0.203282,0.126862,0.203629,0.173715,0.218074,0.203282,0.162657,0.225157,0.218907,0.248074,0.231407,0.243907,0.273074,0.256407,0.298074,0.26474,0.287289,0.292518,0.293907,0.304936,0.30474,0.302836,0.318907,0.316022,0.343407,0.331407,0.323512,0.333907,0.333788,0.331407,0.338225,0.222176,0.112052,0.029233,-0.00359304,-0.0144264,-0.0303577,-0.018593,-0.00609304,-0.0241486,0.00640696,-0.00109304,0.012657,0.0380736,0.0372893,0.0519952,0.056407,0.0578775,0.0787754,0.0893017,0.0931717,0.108074,0.118074,0.13474,0.131407,0.148074,0.153282,0.176407,0.181407,0.187657,0.186963,0.211963,0.223512,0.20474,0.237289,0.238074,0.223715,0.267121,0.265782,0.284532,0.278466,0.281407,0.281407,0.300157,0.30474,0.318907,0.326862,0.331407,0.346407,0.341407,0.36474,0.373074,0.367121,0.381407,0.362657,0.367121,0.36474,0.36474,0.352836,0.356407,0.381407,0.381407,0.381407,0.381407,0.386214,0.401466,0.409785,0.418406,0.430015,nan,nan,nan,nan,nan,nan,nan,nan,nan,nan,nan,nan,nan,nan,nan,nan,nan,nan,nan,nan,nan,nan,nan,nan,nan,nan,nan,nan,nan,nan,nan,nan,nan,nan,nan,nan,nan,nan,nan,nan,nan,nan,nan,nan,nan,nan,nan,nan,nan,nan,nan,nan,nan,nan,nan,nan,nan,nan,nan,nan,nan,nan,nan,nan,nan,nan,nan,nan,nan,nan,nan,nan,nan,nan,nan,nan,nan,nan,nan,nan,nan,nan,nan,nan,nan,nan,nan,nan,nan,nan,nan,nan,nan,nan,nan,nan,nan,nan,nan,nan,nan,nan,nan,nan,nan,nan,nan,nan,nan,nan,nan,nan,nan,nan,nan,nan,nan,nan,nan,nan
0.281407,0.281407,0.281407,0.281407,0.281407,0.281407,0.286407,0.281407,0.281407,0.281407,0.281407,0.281407,0.281407,0.281407,0.281407,0.231407,0.231407,0.258471,0.267258,0.281407,0.281407,0.281407,0.281407,0.26474,0.250157,0.245693,0.266737,0.271469,0.281407,0.281407,0.281407,0.281407,0.298363,0.331407,0.331407,0.331407,0.331407,0.331407,0.331407,0.331407,0.331407,0.322316,0.302836,0.31474,0.281407,0.281407,0.305732,0.319816,0.322839,0.356407,0.191407,0.121407,0.275525,0.331407,0.256407,0.245693,0.154936,0.19599,0.214016,0.16619,0.228466,0.235952,0.174264,0.174264,0.166407,0.156407,0.031407,0.16376,0.150157,0.135253,0.15868,0.139099,0.147196,0.127561,0.15246,0.13974,0.159532,0.131407,0.211407,0.212657,0.226862,0.209978,0.243907,0.246792,0.268907,0.240498,0.25868,0.25868,0.293907,0.25868,0.273715,0.281407,0.236407,0.284185,0.243907,0.281407,0.269642,0.273074,0.286963,0.273715,0.292518,0.290782,0.300157,0.318363,0.310819,0.304936,0.315618,0.333907,0.325525,0.331407,0.333788,0.348798,0.240498,0.124828,0.0200433,-0.00430733,-0.0303577,-0.0219264,-0.015468,-0.00705458,0.00140696,0.00953196,0.00953196,0.0456927,0.0461128,0.0456927,0.056407,0.0480736,0.0671212,0.0705374,0.051407,0.0755246,0.093907,0.097032,0.0992641,0.121407,0.143907,0.150638,0.139099,0.152836,0.169868,0.176861,0.18974,0.202836,0.226407,0.231407,0.263225,0.231407,0.241407,0.245043,0.259185,0.226407,0.250638,0.254134,0.224264,0.25868,0.237657,0.203629,0.248074,0.243907,0.295693,0.211407,0.286963,0.248074,0.31474,0.381407,0.141407,0.381407,0.280555,-0.018593,0.241951,-0.018593,-0.018593,0.326027,0.365505,0.395851,0.413632,0.421955,0.427611,nan,nan,nan,nan,nan,nan,nan,nan,nan,nan,nan,nan,nan,nan,nan,nan,nan,nan,nan,nan,nan,nan,nan,nan,nan,nan,nan,nan,nan,nan,nan,nan,nan,nan,nan,nan,nan,nan,nan,nan,nan,nan,nan,nan,nan,nan,nan,nan,nan,nan,nan,nan,nan,nan,nan,nan,nan,nan,nan,nan,nan,nan,nan,nan,nan,nan,nan,nan,nan,nan,nan,nan,nan,nan,nan,nan,nan,nan,nan,nan,nan,nan,nan,nan,nan,nan,nan,nan,nan,nan,nan,nan,nan,nan,nan,nan,nan,nan,nan,nan,nan,nan,nan,nan,nan,nan,nan,nan,nan,nan,nan,nan,nan,nan,nan,nan,nan,nan,nan,nan,nan
0.293907,0.291407,0.281407,0.293907,0.281407,0.281407,0.291407,0.295043,0.281407,0.281407,0.278808,0.281407,0.273074,0.276861,0.256407,0.256407,0.248608,0.231407,0.26192,0.274055,0.278269,0.281407,0.312657,0.266407,0.252836,0.245043,0.281407,0.263163,0.256407,0.271407,0.281407,0.281407,0.281407,0.306407,0.306407,0.298074,0.318907,0.151407,0.331407,0.331407,0.061407,0.256407,0.291407,0.227836,0.221407,0.291407,0.281407,0.281407,0.331407,0.286963,0.198074,0.181407,0.246407,0.331407,0.33974,0.274264,0.276645,0.18667,0.16589,0.137407,0.0980736,0.124264,0.141407,0.107878,0.13855,0.137657,0.0758514,0.195693,0.151407,0.192945,0.193907,0.176407,0.268907,0.181407,0.231407,0.245043,0.218907,0.248074,0.231407,0.240498,0.225851,0.235952,0.236407,0.261407,0.250638,0.254134,0.240498,0.254936,0.227561,0.231407,0.266022,0.256407,0.242945,0.277836,0.256407,0.254484,0.271407,0.267121,0.283788,0.278282,0.295693,0.296113,0.31474,0.318074,0.323907,0.349264,0.340782,0.337289,0.356407,0.349589,0.350851,0.357494,0.225346,0.13855,0.00532,-0.00388716,-0.00280357,-0.00495668,-0.00430733,0.00413423,0.00540696,0.00849029,0.0450433,0.0218831,0.0385498,0.051407,0.053907,0.0725834,0.0680736,0.0671212,0.093907,0.0902305,0.127836,0.125851,0.125851,0.156407,0.122583,0.162359,0.181407,0.170537,0.215782,0.204134,0.209185,0.201862,0.188907,0.207723,0.196624,0.241407,0.217771,0.226144,0.229026,0.240931,0.256407,0.222316,0.346792,0.248074,0.260819,0.28855,0.218074,0.351407,0.215782,0.359185,0.302836,0.421407,0.359978,0.275851,0.309185,0.406407,0.248074,0.395693,0.217121,0.345693,0.431407,0.431407,0.431407,0.431407,0.423476,0.428316,0.430674,0.431407,nan,nan,nan,nan,nan,nan,nan,nan,nan,nan,nan,nan,nan,nan,nan,nan,nan,nan,nan,nan,nan,nan,nan,nan,nan,nan,nan,nan,nan,nan,nan,nan,nan,nan,nan,nan,nan,nan,nan,nan,nan,nan,nan,nan,nan,nan,nan,nan,nan,nan,nan,nan,nan,nan,nan,nan,nan,nan,nan,nan,nan,nan,nan,nan,nan,nan,nan,nan,nan,nan,nan,nan,nan,nan,nan,nan,nan,nan,nan,nan,nan,nan,nan,nan,nan,nan,nan,nan,nan,nan,nan,nan,nan,nan,nan,nan,nan,nan,nan,nan,nan,nan,nan,nan,nan,nan,nan,nan,nan,nan,nan,nan,nan,nan,nan,nan,nan,nan,nan,nan
0.30868,0.311407,0.281407,0.293907,0.281407,0.281407,0.281407,0.281407,0.281407,0.281407,0.281407,0.281407,0.268907,0.270296,0.249589,0.231407,0.242601,0.231407,0.281407,0.281407,0.275244,0.281407,0.218907,0.259185,0.261407,0.204134,0.256407,0.255714,0.243907,0.271407,0.281407,0.279874,0.290839,0.281407,0.31474,0.31474,0.331407,0.331407,0.331407,0.331407,0.331407,0.0869625,0.11474,0.228282,0.23855,0.291407,0.281407,0.281407,0.311407,0.318907,0.331407,0.331407,0.331407,0.36474,0.36474,0.281407,0.312176,0.285253,0.28368,0.201862,0.231407,0.206407,0.21355,0.190498,0.241407,0.196407,0.241407,0.235952,0.240498,0.217121,0.225525,0.209978,0.217121,0.231407,0.20224,0.235253,0.226862,0.216022,0.206407,0.231407,0.193907,0.216022,0.204484,0.20868,0.261407,0.234532,0.231407,0.253282,0.222316,0.242945,0.254484,0.256407,0.25474,0.254484,0.278629,0.273715,0.29023,0.290498,0.304484,0.318907,0.323715,0.323074,0.321407,0.316701,0.343172,0.338907,0.328629,0.356407,0.343907,0.346624,0.361407,0.362986,0.243702,0.163322,0.0235945,-0.00495668,-0.011093,-0.00192638,0.00997839,0.011407,0.016407,0.0508514,0.025157,0.0508514,0.0609524,0.056407,0.0885498,0.081407,0.0857548,0.0952959,0.0950433,0.117121,0.106407,0.111407,0.131407,0.128907,0.155091,0.146792,0.154936,0.166407,0.166701,0.203629,0.125851,0.201407,0.184348,0.211407,0.262657,0.150851,0.220693,0.203907,0.23974,0.217121,0.201407,0.245043,0.231407,0.259185,0.226862,0.185952,0.231407,0.195043,0.36474,0.287657,0.317121,0.31474,0.293907,0.381407,0.381407,0.11474,0.256352,-0.018593,-0.018593,0.294166,0.339176,0.379076,0.406499,0.420877,0.426547,0.429034,0.431379,nan,nan,nan,nan,nan,nan,nan,nan,nan,nan,nan,nan,nan,nan,nan,nan,nan,nan,nan,nan,nan,nan,nan,nan,nan,nan,nan,nan,nan,nan,nan,nan,nan,nan,nan,nan,nan,nan,nan,nan,nan,nan,nan,nan,nan,nan,nan,nan,nan,nan,nan,nan,nan,nan,nan,nan,nan,nan,nan,nan,nan,nan,nan,nan,nan,nan,nan,nan,nan,nan,nan,nan,nan,nan,nan,nan,nan,nan,nan,nan,nan,nan,nan,nan,nan,nan,nan,nan,nan,nan,nan,nan,nan,nan,nan,nan,nan,nan,nan,nan,nan,nan,nan,nan,nan,nan,nan,nan,nan,nan,nan,nan,nan,nan,nan,nan,nan,nan,nan,nan,nan
0.331407,0.318907,0.28974,0.289099,0.281407,0.281407,0.301407,0.285952,0.281407,0.281407,0.281407,0.281407,0.187657,0.272316,0.243907,0.231407,0.23705,0.241857,0.254723,0.269883,0.281407,0.281407,0.287657,0.0885498,0.281407,0.25868,0.243907,0.281407,0.256407,0.256407,0.281407,0.281407,0.284889,0.298287,0.306407,0.331407,0.331407,0.318907,0.331407,0.331407,0.331407,0.381407,0.359185,0.318907,0.291407,0.281407,0.281407,0.281407,0.281407,0.281407,0.298074,0.331407,0.331407,0.331407,0.343907,0.298074,0.281407,0.281407,0.270881,0.257878,0.228074,0.21474,0.209185,0.206407,0.196792,0.204134,0.185952,0.193907,0.218907,0.181407,0.201407,0.199589,0.177561,0.225157,0.185253,0.195043,0.188074,0.203629,0.22724,0.201407,0.20474,0.193907,0.243907,0.173074,0.26474,0.23855,0.220296,0.258074,0.266407,0.26355,0.254484,0.269642,0.291407,0.271407,0.293172,0.276407,0.29023,0.302836,0.295693,0.292945,0.295296,0.324264,0.312986,0.328074,0.309532,0.328074,0.361842,0.352836,0.357597,0.374589,0.357723,0.379134,0.253282,0.20224,0.03333,0.0161896,0.00532,0.0291342,0.0224784,0.0140157,0.0397403,0.0256377,0.0433117,0.0591847,0.0335809,0.0758514,0.0725834,0.0859524,0.109532,0.0897403,0.0944504,0.0995888,0.124264,0.104324,0.13368,0.118907,0.152836,0.193172,0.161407,0.196113,0.206407,0.165498,0.262657,0.20474,0.222032,0.260819,0.207878,0.277561,0.251407,0.301407,0.296792,0.278466,0.35224,0.268074,0.319869,0.331407,0.270693,0.331407,0.263225,0.370296,0.326407,0.359185,0.359978,0.306407,0.43974,0.317121,0.231407,0.411407,0.311407,0.281407,0.406407,0.41474,0.431407,0.431407,0.406994,0.400076,0.38869,0.380748,0.385154,nan,nan,nan,nan,nan,nan,nan,nan,nan,nan,nan,nan,nan,nan,nan,nan,nan,nan,nan,nan,nan,nan,nan,nan,nan,nan,nan,nan,nan,nan,nan,nan,nan,nan,nan,nan,nan,nan,nan,nan,nan,nan,nan,nan,nan,nan,nan,nan,nan,nan,nan,nan,nan,nan,nan,nan,nan,nan,nan,nan,nan,nan,nan,nan,nan,nan,nan,nan,nan,nan,nan,nan,nan,nan,nan,nan,nan,nan,nan,nan,nan,nan,nan,nan,nan,nan,nan,nan,nan,nan,nan,nan,nan,nan,nan,nan,nan,nan,nan,nan,nan,nan,nan,nan,nan,nan,nan,nan,nan,nan,nan,nan,nan,nan,nan,nan,nan,nan,nan,nan,nan
0.331407,0.326862,0.301407,0.281407,0.292518,0.289413,0.281407,0.17724,0.28855,0.281407,0.281407,0.198074,0.256407,0.13855,0.231407,0.231407,0.231407,0.231407,0.247934,0.265704,0.273296,0.267831,0.28974,0.256407,0.259978,0.25224,0.231407,0.231407,0.231407,0.231407,0.281407,0.259877,0.271368,0.287484,0.300886,0.281407,0.331407,0.331407,0.331407,0.324493,0.316192,0.356407,0.36474,0.31474,0.309185,0.28974,0.281407,0.281407,0.281407,0.281407,0.250157,0.281407,0.331407,0.231407,0.318907,0.28855,0.235253,0.249264,0.248907,0.23974,0.231407,0.185952,0.18974,0.177836,0.185952,0.209532,0.17724,0.186407,0.174264,0.198074,0.15868,0.201407,0.141407,0.22474,0.171407,0.18974,0.215782,0.166022,0.226862,0.186407,0.225851,0.235952,0.22724,0.25868,0.240498,0.239099,0.258074,0.245043,0.275525,0.248074,0.278074,0.273074,0.284978,0.273715,0.285952,0.293172,0.26474,0.295296,0.302836,0.312657,0.312657,0.312657,0.315782,0.334185,0.350157,0.33667,0.351407,0.350157,0.374264,0.352836,0.381407,0.369407,0.233225,0.165952,0.00787755,-0.0120713,0.0108187,0.0183635,0.0235122,0.056407,0.013907,0.0580736,0.0480736,0.0603543,0.081407,0.0632251,0.0680736,0.100638,0.0787754,0.147032,0.141407,0.126407,0.140498,0.135952,0.167121,0.177059,0.158907,0.179026,0.202836,0.200455,0.156407,0.212986,0.185755,0.217518,0.23368,0.216407,0.219642,0.256407,0.228629,0.268249,0.231407,0.268074,0.203629,0.254936,0.25474,0.234978,0.340498,0.25868,0.381407,0.286407,0.311407,0.293907,0.295693,0.311407,0.236963,0.398074,0.398074,0.151407,-0.018593,0.431407,0.345574,0.431407,0.431407,0.380539,0.431407,0.315787,0.26849,0.212466,0.131803,-0.00606771,nan,nan,nan,nan,nan,nan,nan,nan,nan,nan,nan,nan,nan,nan,nan,nan,nan,nan,nan,nan,nan,nan,nan,nan,nan,nan,nan,nan,nan,nan,nan,nan,nan,nan,nan,nan,nan,nan,nan,nan,nan,nan,nan,nan,nan,nan,nan,nan,nan,nan,nan,nan,nan,nan,nan,nan,nan,nan,nan,nan,nan,nan,nan,nan,nan,nan,nan,nan,nan,nan,nan,nan,nan,nan,nan,nan,nan,nan,nan,nan,nan,nan,nan,nan,nan,nan,nan,nan,nan,nan,nan,nan,nan,nan,nan,nan,nan,nan,nan,nan,nan,nan,nan,nan,nan,nan,nan,nan,nan,nan,nan,nan,nan,nan,nan,nan,nan,nan,nan,nan
0.331407,0.331407,0.310574,0.293907,0.286963,0.306407,0.281407,0.312657,0.247032,0.213225,0.281407,0.266407,0.239099,0.231407,0.231407,0.231407,0.231407,0.234122,0.242671,0.260062,0.272443,0.281407,0.276861,0.250157,0.256407,0.240498,0.231407,0.231407,0.231407,0.231407,0.231407,0.244633,0.253043,0.281407,0.286298,0.281407,0.315901,0.324671,0.331407,0.324495,0.331407,0.348074,0.23974,0.287289,0.295693,0.193907,0.217771,0.193907,0.281407,0.281407,0.267771,0.218907,0.28855,0.181407,0.318907,0.222316,0.239099,0.181407,0.186963,0.172583,0.162986,0.15833,0.148074,0.206407,0.148074,0.192121,0.18974,0.168907,0.217771,0.162657,0.168907,0.209185,0.146407,0.219868,0.209978,0.22724,0.22724,0.226862,0.236407,0.221407,0.231407,0.246792,0.246407,0.237657,0.187657,0.266701,0.245043,0.231407,0.273074,0.225157,0.268907,0.25833,0.278074,0.287657,0.271407,0.307723,0.30474,0.303282,0.30833,0.331407,0.328074,0.33974,0.333907,0.346792,0.339302,0.356407,0.351995,0.350157,0.367518,0.359185,0.369642,0.399264,0.246407,0.136579,0.000156958,-0.00430733,-0.0133299,0.00997839,-0.00192637,0.0108187,0.0366701,-0.00668828,0.0347403,0.031407,0.034532,0.041407,0.0550912,0.0730736,0.0837879,0.0925181,0.0918236,0.110354,0.0647403,0.109407,0.102836,0.0980736,0.113225,0.17099,0.122148,0.115782,0.162888,0.157269,0.148074,0.204134,0.168363,0.213225,0.200851,0.195407,0.233907,0.190931,0.281407,0.246113,0.289099,0.268907,0.335952,0.336963,0.281407,0.38855,0.254134,0.393907,0.306407,0.331407,0.352836,0.292518,0.317121,0.26474,0.245693,0.418907,0.402836,0.431407,0.431407,0.431407,0.431407,0.319904,0.274125,0.22186,0.165781,0.103416,0.0328819,nan,nan,nan,nan,nan,nan,nan,nan,nan,nan,nan,nan,nan,nan,nan,nan,nan,nan,nan,nan,nan,nan,nan,nan,nan,nan,nan,nan,nan,nan,nan,nan,nan,nan,nan,nan,nan,nan,nan,nan,nan,nan,nan,nan,nan,nan,nan,nan,nan,nan,nan,nan,nan,nan,nan,nan,nan,nan,nan,nan,nan,nan,nan,nan,nan,nan,nan,nan,nan,nan,nan,nan,nan,nan,nan,nan,nan,nan,nan,nan,nan,nan,nan,nan,nan,nan,nan,nan,nan,nan,nan,nan,nan,nan,nan,nan,nan,nan,nan,nan,nan,nan,nan,nan,nan,nan,nan,nan,nan,nan,nan,nan,nan,nan,nan,nan,nan,nan,nan,nan,nan
0.331407,0.331407,0.331407,0.324264,0.28974,0.325851,0.331407,0.306407,0.304134,0.281407,0.281407,0.262176,0.231407,0.231407,0.231407,0.218907,0.231407,0.231407,0.231407,0.281407,0.265812,0.281407,0.281407,0.241407,0.231407,0.231407,0.231407,0.231407,0.231407,0.231407,0.231407,0.232468,0.231407,0.249806,0.266041,0.289773,0.313009,0.325303,0.331407,0.315169,0.331407,0.331407,0.228282,0.255091,0.206407,0.081407,0.223074,0.236963,0.236963,0.093907,0.281407,0.281407,0.16474,0.281407,0.293907,0.273074,0.192945,0.217518,0.171407,0.201407,0.228466,0.106407,0.201407,0.176861,0.20474,0.176407,0.185574,0.181407,0.196407,0.20868,0.218907,0.204134,0.213225,0.211407,0.22474,0.231407,0.222316,0.242121,0.243907,0.23855,0.186963,0.222316,0.231407,0.209185,0.221407,0.254484,0.250638,0.246792,0.259978,0.270693,0.245043,0.275157,0.281407,0.292945,0.292121,0.291407,0.307723,0.323074,0.31474,0.31474,0.316022,0.328074,0.343907,0.35224,0.343312,0.361407,0.351995,0.37474,0.356407,0.37474,0.378907,0.37724,0.219705,0.181407,0.0245888,0.033907,0.0266451,0.0379287,0.0198685,0.0242641,0.0459903,0.0766451,0.055481,0.0671213,0.0536292,0.0794839,0.0702959,0.056407,0.079407,0.0857548,0.108907,0.115336,0.128775,0.151777,0.173512,0.171883,0.198798,0.158907,0.150455,0.211407,0.173074,0.243907,0.261407,0.238074,0.331407,0.228282,0.321407,0.256407,0.31355,0.34474,0.275157,0.348074,0.28855,0.354134,0.242518,0.336407,0.32474,0.285952,0.372316,0.245693,0.431407,0.290498,0.324264,0.220296,0.343907,0.443907,0.451407,0.331407,0.431407,0.171407,0.431407,0.456407,0.171407,0.431407,0.218907,-0.018593,0.131691,0.0768322,0.0146142,-0.0174907,nan,nan,nan,nan,nan,nan,nan,nan,nan,nan,nan,nan,nan,nan,nan,nan,nan,nan,nan,nan,nan,nan,nan,nan,nan,nan,nan,nan,nan,nan,nan,nan,nan,nan,nan,nan,nan,nan,nan,nan,nan,nan,nan,nan,nan,nan,nan,nan,nan,nan,nan,nan,nan,nan,nan,nan,nan,nan,nan,nan,nan,nan,nan,nan,nan,nan,nan,nan,nan,nan,nan,nan,nan,nan,nan,nan,nan,nan,nan,nan,nan,nan,nan,nan,nan,nan,nan,nan,nan,nan,nan,nan,nan,nan,nan,nan,nan,nan,nan,nan,nan,nan,nan,nan,nan,nan,nan,nan,nan,nan,nan,nan,nan,nan,nan,nan,nan,nan,nan,nan
0.331407,0.331407,0.331407,0.331407,0.331407,0.331407,0.331407,0.317121,0.306407,0.281407,0.281407,0.273074,0.241407,0.231407,0.231407,0.230318,0.231407,0.231407,0.230884,0.234955,0.245302,0.251277,0.281407,0.256407,0.231407,0.241407,0.256407,0.231407,0.231407,0.167121,0.231407,0.231407,0.231407,0.231407,0.24708,0.269204,0.306991,0.324784,0.331407,0.331407,0.331407,0.050157,0.150638,0.228629,0.156407,0.068907,0.173074,0.220693,0.281407,0.281407,0.225157,0.281407,0.236963,0.300157,0.259185,0.247032,0.23855,0.225525,0.209978,0.212657,0.201407,0.176861,0.20224,0.191407,0.221407,0.169868,0.206407,0.225157,0.196407,0.213225,0.218074,0.218907,0.226144,0.181407,0.209532,0.222316,0.20224,0.217121,0.212657,0.252836,0.240498,0.223074,0.223074,0.236963,0.237657,0.223074,0.252836,0.246407,0.231407,0.272032,0.276407,0.28974,0.285952,0.28974,0.308074,0.256407,0.321407,0.316022,0.30246,0.331407,0.311963,0.348074,0.349054,0.342945,0.359532,0.356407,0.35833,0.354936,0.348074,0.359532,0.389099,0.389302,0.261137,0.151582,0.025157,0.031407,0.036407,0.0450433,0.0742641,0.0402305,0.0772403,0.059532,0.0605736,0.076407,0.0698685,0.0772403,0.071407,0.100638,0.106407,0.127836,0.172316,0.212176,0.204134,0.227561,0.22724,0.211407,0.187289,0.231407,0.231407,0.210819,0.309532,0.228775,0.273074,0.278282,0.244565,0.281407,0.228466,0.293907,0.234348,0.198074,0.298074,0.270881,0.337657,0.227561,0.335574,0.231407,0.281407,0.304134,0.222316,0.281407,0.28974,0.256407,0.241407,0.331407,0.481407,0.181407,0.237657,0.431407,0.281407,0.206407,0.481407,-0.00859304,0.289712,-0.018593,-0.018593,0.183181,0.155786,0.110276,0.0389849,-0.018593,nan,nan,nan,nan,nan,nan,nan,nan,nan,nan,nan,nan,nan,nan,nan,nan,nan,nan,nan,nan,nan,nan,nan,nan,nan,nan,nan,nan,nan,nan,nan,nan,nan,nan,nan,nan,nan,nan,nan,nan,nan,nan,nan,nan,nan,nan,nan,nan,nan,nan,nan,nan,nan,nan,nan,nan,nan,nan,nan,nan,nan,nan,nan,nan,nan,nan,nan,nan,nan,nan,nan,nan,nan,nan,nan,nan,nan,nan,nan,nan,nan,nan,nan,nan,nan,nan,nan,nan,nan,nan,nan,nan,nan,nan,nan,nan,nan,nan,nan,nan,nan,nan,nan,nan,nan,nan,nan,nan,nan,nan,nan,nan,nan,nan,nan,nan,nan,nan,nan,nan
0.331407,0.331407,0.331407,0.331407,0.331407,0.331407,0.331407,0.325157,0.317771,0.296407,0.281407,0.281407,0.259532,0.231407,0.231407,0.231407,0.231407,0.231407,0.215737,0.21049,0.215523,0.225647,0.281407,0.281407,0.081407,0.231407,0.0980736,0.243907,0.185253,0.141407,0.211182,0.219298,0.22814,0.232565,0.234834,0.244023,0.280429,0.31145,0.309835,0.290995,0.265928,0.331407,0.131407,0.318907,0.206407,0.181407,0.231407,0.301995,0.281407,0.281407,0.281407,0.268907,0.320296,0.301407,0.299589,0.236963,0.204936,0.207723,0.246792,0.228282,0.191407,0.21474,0.202836,0.204134,0.220693,0.204484,0.218907,0.186963,0.225851,0.202836,0.206407,0.210574,0.218907,0.20474,0.206407,0.201995,0.21474,0.206407,0.21474,0.192518,0.261407,0.186407,0.254134,0.231407,0.241407,0.251407,0.235574,0.256407,0.259185,0.271407,0.28855,0.285574,0.285253,0.285952,0.309978,0.299828,0.301407,0.30833,0.317771,0.323074,0.356407,0.328466,0.35833,0.354484,0.357878,0.369869,0.347032,0.349589,0.349054,0.360819,0.36376,0.356407,0.278377,0.151407,0.056407,0.021407,0.0547403,0.0758514,0.040782,0.104484,0.0682491,0.097032,0.13974,0.125157,0.13855,0.15868,0.162657,0.157723,0.166824,0.163907,0.190931,0.181407,0.212657,0.228466,0.21474,0.223074,0.231407,0.217518,0.249054,0.221407,0.224264,0.253629,0.223074,0.278074,0.248074,0.231407,0.300157,0.251407,0.268074,0.290231,0.237657,0.277561,0.261407,0.256407,0.300638,0.267121,0.317771,0.281407,0.33974,0.259185,0.260574,0.291407,0.350157,0.452836,0.296407,0.468907,0.468907,0.31474,0.298074,0.46474,0.148074,0.281407,0.31474,0.106407,0.481407,0.232269,0.227307,0.206285,0.141453,-0.00467568,nan,nan,nan,nan,nan,nan,nan,nan,nan,nan,nan,nan,nan,nan,nan,nan,nan,nan,nan,nan,nan,nan,nan,nan,nan,nan,nan,nan,nan,nan,nan,nan,nan,nan,nan,nan,nan,nan,nan,nan,nan,nan,nan,nan,nan,nan,nan,nan,nan,nan,nan,nan,nan,nan,nan,nan,nan,nan,nan,nan,nan,nan,nan,nan,nan,nan,nan,nan,nan,nan,nan,nan,nan,nan,nan,nan,nan,nan,nan,nan,nan,nan,nan,nan,nan,nan,nan,nan,nan,nan,nan,nan,nan,nan,nan,nan,nan,nan,nan,nan,nan,nan,nan,nan,nan,nan,nan,nan,nan,nan,nan,nan,nan,nan,nan,nan,nan,nan,nan,nan
0.331407,0.331407,0.331407,0.331407,0.331407,0.331407,0.331407,0.331407,0.311407,0.299589,0.281407,0.281407,0.270693,0.23474,0.231407,0.231407,0.240498,0.231407,0.198564,0.181407,0.181407,0.181407,0.181407,0.206407,0.231407,0.208129,0.206407,0.21474,0.20868,0.206407,0.212044,0.218357,0.225403,0.228637,0.229935,0.233164,0.250788,0.280653,0.286496,0.273998,0.256409,0.246038,0.331407,0.303629,0.295693,0.306407,0.175851,0.28474,0.248074,0.281407,0.281407,0.301407,0.331407,0.26474,0.273715,0.268907,0.243907,0.259978,0.200157,0.202836,0.200157,0.202836,0.185952,0.195043,0.20224,0.209978,0.185952,0.20868,0.154134,0.181407,0.200157,0.227836,0.218907,0.203282,0.225157,0.215782,0.210574,0.21474,0.21355,0.21474,0.251407,0.212657,0.23974,0.246407,0.241407,0.262176,0.25868,0.259978,0.242121,0.245693,0.266701,0.267771,0.296792,0.28974,0.285574,0.31355,0.293907,0.331407,0.33974,0.331407,0.345296,0.341407,0.334978,0.351407,0.331407,0.35474,0.354484,0.354484,0.381407,0.362176,0.359532,0.385952,0.291022,0.152097,0.016407,0.0272403,0.049054,0.0284658,0.0671212,0.041407,0.051407,0.0547403,0.043907,0.0742641,0.0925181,0.10833,0.116407,0.173074,0.125851,0.170693,0.16355,0.131407,0.181407,0.110574,0.172316,0.167771,0.23855,0.190498,0.245043,0.236963,0.225851,0.254134,0.206407,0.185952,0.189099,0.256407,0.285952,0.242121,0.217771,0.281407,0.276407,0.285574,0.273074,0.256407,0.239099,0.306407,0.235253,0.267771,0.267771,0.32724,0.371407,0.343907,0.381407,0.211407,0.481407,0.481407,0.431407,0.245693,1.48141,1.34504,0.935952,0.981407,0.131407,0.337356,0.481407,0.307936,0.329655,0.346543,0.349926,nan,nan,nan,nan,nan,nan,nan,nan,nan,nan,nan,nan,nan,nan,nan,nan,nan,nan,nan,nan,nan,nan,nan,nan,nan,nan,nan,nan,nan,nan,nan,nan,nan,nan,nan,nan,nan,nan,nan,nan,nan,nan,nan,nan,nan,nan,nan,nan,nan,nan,nan,nan,nan,nan,nan,nan,nan,nan,nan,nan,nan,nan,nan,nan,nan,nan,nan,nan,nan,nan,nan,nan,nan,nan,nan,nan,nan,nan,nan,nan,nan,nan,nan,nan,nan,nan,nan,nan,nan,nan,nan,nan,nan,nan,nan,nan,nan,nan,nan,nan,nan,nan,nan,nan,nan,nan,nan,nan,nan,nan,nan,nan,nan,nan,nan,nan,nan,nan,nan,nan,nan
0.331407,0.331407,0.331407,0.331407,0.331407,0.312657,0.321407,0.293907,0.185952,0.281407,0.148074,0.167771,0.166022,0.240498,0.231407,0.193907,0.218907,0.181407,0.181407,0.181407,0.181407,0.198417,0.181407,0.181407,0.181407,0.218907,0.181407,0.256407,0.249264,0.223074,0.213518,0.231407,0.231407,0.231407,0.231407,0.231407,0.243807,0.265641,0.27015,0.281407,0.281407,0.181407,0.16474,0.281407,0.298074,0.241407,0.306407,0.242518,0.281407,0.293907,0.243907,0.281407,0.306407,0.181407,0.225157,0.210574,0.195693,0.181407,0.202836,0.187657,0.18855,0.195693,0.162657,0.222316,0.177561,0.143907,0.217121,0.181407,0.167121,0.181407,0.219868,0.211407,0.196407,0.192945,0.217771,0.212176,0.224264,0.221407,0.234532,0.211407,0.246792,0.23855,0.235952,0.26474,0.254134,0.243907,0.260574,0.248074,0.263225,0.243907,0.286963,0.273715,0.272316,0.304484,0.304134,0.310819,0.324264,0.30224,0.326144,0.327561,0.345043,0.343907,0.331407,0.349264,0.35868,0.361407,0.356407,0.351407,0.35868,0.363225,0.381407,0.368907,0.314016,0.127097,0.0385498,0.0347403,0.0198685,0.0450433,0.0280736,0.043907,0.025157,0.046407,0.0586797,0.0536292,0.0599784,0.043907,0.062657,0.0599784,0.102836,0.026407,0.031407,0.121407,0.0737147,0.131407,0.0950433,0.116407,0.139099,0.068907,0.145693,0.168907,0.217121,0.204134,0.193907,0.191407,0.231407,0.181407,0.191407,0.220693,0.191407,0.175851,0.218907,0.218907,0.167771,0.269868,0.196407,0.254134,0.281407,0.281407,0.38855,0.287657,0.371407,0.309185,0.345693,0.38974,0.298074,0.243907,0.231407,0.431407,0.281407,1.08729,0.859532,0.896792,-0.068593,0.417471,0.37567,0.387768,0.425539,0.456817,0.476751,nan,nan,nan,nan,nan,nan,nan,nan,nan,nan,nan,nan,nan,nan,nan,nan,nan,nan,nan,nan,nan,nan,nan,nan,nan,nan,nan,nan,nan,nan,nan,nan,nan,nan,nan,nan,nan,nan,nan,nan,nan,nan,nan,nan,nan,nan,nan,nan,nan,nan,nan,nan,nan,nan,nan,nan,nan,nan,nan,nan,nan,nan,nan,nan,nan,nan,nan,nan,nan,nan,nan,nan,nan,nan,nan,nan,nan,nan,nan,nan,nan,nan,nan,nan,nan,nan,nan,nan,nan,nan,nan,nan,nan,nan,nan,nan,nan,nan,nan,nan,nan,nan,nan,nan,nan,nan,nan,nan,nan,nan,nan,nan,nan,nan,nan,nan,nan,nan,nan,nan,nan
0.331407,0.331407,0.331407,0.331407,0.318907,0.287657,0.301407,0.281407,0.293907,0.18855,0.0956927,0.231407,0.273715,0.274264,0.231407,0.078282,0.119869,0.181407,0.15868,0.181407,0.188867,0.206407,0.231407,0.206407,0.231407,0.231407,0.225563,0.281407,0.243907,0.198074,0.206407,0.231407,0.231407,0.212925,0.231407,0.225493,0.243289,0.262511,0.26474,0.261407,0.281407,0.254134,0.296407,0.274264,0.281407,0.256522,0.331407,-0.018593,0.274264,0.293907,0.240498,0.281407,0.281407,0.231407,0.173074,0.216407,0.211407,0.275157,0.177561,0.225851,0.181407,0.213225,0.125157,0.176407,0.185952,0.204134,0.192945,0.16474,0.221407,0.218907,0.202836,0.216022,0.222316,0.222032,0.22474,0.201407,0.224264,0.226862,0.23855,0.206407,0.206407,0.248074,0.224264,0.23474,0.248074,0.270296,0.22724,0.25224,0.276861,0.266407,0.28974,0.284978,0.286963,0.306407,0.31474,0.292945,0.319868,0.341407,0.331407,0.33474,0.331407,0.36474,0.360574,0.356407,0.35833,0.335952,0.35868,0.356407,0.36474,0.374264,0.36474,0.360574,0.292518,0.155481,0.0230736,-0.00192638,0.0160223,0.0206927,0.021407,0.0355736,0.031407,0.0268615,0.00867969,0.031407,0.0177706,-0.00192637,0.0171212,0.00362918,0.00140696,-0.00859304,0.0105736,-0.00705458,-0.0352597,-0.0352597,0.0495888,0.061407,0.0904979,0.0904979,0.0541342,0.104484,0.081407,0.0737147,0.0904979,0.112176,0.109978,0.272316,0.134978,0.18855,0.181407,0.218074,0.196407,0.231407,0.31474,0.276407,0.303629,0.38855,0.309185,0.33855,0.26474,0.467121,0.318907,0.800157,1.08141,0.387657,0.348074,0.423074,0.281407,0.231407,0.356407,0.943907,1.09895,0.611407,0.456407,0.481407,0.435581,0.443,0.469355,0.481054,0.481407,nan,nan,nan,nan,nan,nan,nan,nan,nan,nan,nan,nan,nan,nan,nan,nan,nan,nan,nan,nan,nan,nan,nan,nan,nan,nan,nan,nan,nan,nan,nan,nan,nan,nan,nan,nan,nan,nan,nan,nan,nan,nan,nan,nan,nan,nan,nan,nan,nan,nan,nan,nan,nan,nan,nan,nan,nan,nan,nan,nan,nan,nan,nan,nan,nan,nan,nan,nan,nan,nan,nan,nan,nan,nan,nan,nan,nan,nan,nan,nan,nan,nan,nan,nan,nan,nan,nan,nan,nan,nan,nan,nan,nan,nan,nan,nan,nan,nan,nan,nan,nan,nan,nan,nan,nan,nan,nan,nan,nan,nan,nan,nan,nan,nan,nan,nan,nan,nan,nan,nan,nan
0.331407,0.331407,0.331407,0.331407,0.311407,0.281407,0.301407,0.281407,0.301407,0.295043,0.306407,0.211407,0.277561,0.122316,0.176861,0.059532,0.119642,0.109185,0.172034,0.181407,0.181407,0.231407,0.206407,0.231407,0.231407,0.223369,0.231407,0.248074,0.234348,0.18855,0.181407,0.206407,0.181407,0.181407,0.206807,0.217806,0.236638,0.253741,0.281407,0.281407,0.213853,-0.118593,0.240782,0.23974,0.251932,0.247172,0.233729,0.229846,0.162657,0.218907,0.193907,0.256407,0.281407,0.281407,0.231407,0.209978,0.125851,0.231407,0.154134,0.196113,0.149589,0.198074,0.195043,0.231407,0.163225,0.200638,0.163225,0.186963,0.215782,0.186407,0.20224,0.185952,0.21474,0.203629,0.209532,0.198074,0.216407,0.223074,0.192518,0.234532,0.206407,0.246792,0.259185,0.236963,0.252836,0.248074,0.276407,0.269868,0.270296,0.28474,0.263225,0.298074,0.301995,0.287657,0.310574,0.324264,0.28855,0.312657,0.325157,0.327561,0.351407,0.342945,0.370296,0.349589,0.371407,0.359185,0.35868,0.348074,0.36474,0.354484,0.361407,0.368907,0.328074,0.169705,0.0352531,0.0385498,0.000851404,0.0380736,-0.00320842,-0.0147469,0.00640696,0.0132251,0.00640696,-0.0241486,-0.0339777,-0.0317509,-0.0362401,-0.0378238,-0.0231385,-0.0227597,-0.0477597,-0.033593,-0.033593,-0.0241486,-0.018593,-0.018593,-0.018593,0.0480736,0.123074,0.109978,0.131407,0.206407,0.181407,0.131407,0.206407,0.161407,0.456407,0.21474,0.318907,0.337657,0.261407,0.361407,0.223074,0.218907,0.23974,0.356407,0.181407,0.401407,0.256407,0.311407,1.07822,1.05141,1.08804,0.211407,0.911407,0.467121,0.981407,0.21474,0.231407,1.02686,1.11987,0.793907,0.481407,0.50573,0.481407,0.469331,0.479381,0.481407,0.481407,nan,nan,nan,nan,nan,nan,nan,nan,nan,nan,nan,nan,nan,nan,nan,nan,nan,nan,nan,nan,nan,nan,nan,nan,nan,nan,nan,nan,nan,nan,nan,nan,nan,nan,nan,nan,nan,nan,nan,nan,nan,nan,nan,nan,nan,nan,nan,nan,nan,nan,nan,nan,nan,nan,nan,nan,nan,nan,nan,nan,nan,nan,nan,nan,nan,nan,nan,nan,nan,nan,nan,nan,nan,nan,nan,nan,nan,nan,nan,nan,nan,nan,nan,nan,nan,nan,nan,nan,nan,nan,nan,nan,nan,nan,nan,nan,nan,nan,nan,nan,nan,nan,nan,nan,nan,nan,nan,nan,nan,nan,nan,nan,nan,nan,nan,nan,nan,nan,nan,nan,nan
0.331407,0.331407,0.331407,0.331407,0.281407,0.281407,0.293907,0.331407,0.324264,0.326862,0.285574,0.281407,0.190498,0.106407,0.0647403,0.123074,0.207723,0.203629,0.181407,0.181407,0.181407,0.19183,0.181407,0.21012,0.231407,0.231407,0.243907,0.23974,0.211407,0.181407,0.198074,0.167121,0.181407,0.181407,0.197939,0.209608,0.223642,0.235927,0.238212,0.223406,0.204054,0.156407,0.223715,0.256407,0.281407,0.231407,0.281407,0.281407,0.281407,0.281407,0.281407,-0.00192637,0.218074,0.273715,0.281407,0.203629,0.241407,0.181407,0.20833,0.218074,0.21474,0.196407,0.198074,0.174264,0.231407,0.211407,0.174264,0.204134,0.206407,0.191407,0.16474,0.200638,0.204134,0.231407,0.206407,0.217121,0.22724,0.206407,0.219868,0.231407,0.222583,0.203629,0.250638,0.261407,0.266407,0.268907,0.26474,0.263225,0.26474,0.281407,0.299264,0.286963,0.29474,0.308074,0.295043,0.306407,0.326862,0.31474,0.331407,0.313225,0.341407,0.317771,0.342518,0.36474,0.36474,0.356407,0.368907,0.386963,0.345043,0.371407,0.356407,0.366022,0.36474,0.189407,0.012657,0.031407,0.0742641,0.00867969,0.0171212,0.071407,0.031407,0.081407,-0.018593,0.043907,0.056407,0.0671212,0.081407,0.031407,-0.018593,-0.0139787,-0.0175375,-0.0192825,-0.0187748,-0.0146553,-0.00733973,0.000663155,0.00824983,-0.018593,-0.018593,-0.018593,0.161407,0.161407,0.343907,0.206407,0.261407,0.298074,0.171407,0.356407,0.231407,0.281407,0.231407,0.231407,0.267121,0.31474,0.231407,0.231407,0.181407,0.211407,0.321407,0.256407,0.832922,0.849978,0.645407,0.443907,0.281407,0.36474,0.081407,0.481407,0.481407,0.481407,0.481407,0.571212,0.520858,0.473846,0.455787,0.463207,0.476126,0.481191,0.481407,nan,nan,nan,nan,nan,nan,nan,nan,nan,nan,nan,nan,nan,nan,nan,nan,nan,nan,nan,nan,nan,nan,nan,nan,nan,nan,nan,nan,nan,nan,nan,nan,nan,nan,nan,nan,nan,nan,nan,nan,nan,nan,nan,nan,nan,nan,nan,nan,nan,nan,nan,nan,nan,nan,nan,nan,nan,nan,nan,nan,nan,nan,nan,nan,nan,nan,nan,nan,nan,nan,nan,nan,nan,nan,nan,nan,nan,nan,nan,nan,nan,nan,nan,nan,nan,nan,nan,nan,nan,nan,nan,nan,nan,nan,nan,nan,nan,nan,nan,nan,nan,nan,nan,nan,nan,nan,nan,nan,nan,nan,nan,nan,nan,nan,nan,nan,nan,nan,nan,nan,nan
0.331407,0.311407,0.302836,0.318907,0.281407,0.281407,0.300469,0.331407,0.302836,0.281407,0.109185,0.281407,0.068907,0.183586,0.184665,0.331407,0.254134,0.181407,0.181407,0.131407,0.177469,0.181407,0.181407,0.231407,0.205605,0.198068,0.179207,0.031407,0.093907,0.181407,0.093907,0.168907,0.202836,0.181407,0.19176,0.231407,0.231407,0.231407,0.22375,0.215555,0.231407,0.18855,0.23855,0.256407,0.26474,0.26474,-0.018593,0.221407,0.286963,0.281407,0.198074,0.281407,0.218907,0.258074,0.221407,0.256407,0.249054,0.22724,0.186407,0.228466,0.175851,0.206407,0.231407,0.17724,0.166407,0.176407,0.181407,0.186963,0.20224,0.186963,0.221407,0.176861,0.20868,0.209532,0.206407,0.218074,0.231407,0.206407,0.228282,0.225157,0.250157,0.243907,0.256407,0.271407,0.246407,0.243907,0.270296,0.251407,0.270693,0.262176,0.287657,0.299589,0.274264,0.316407,0.316407,0.309185,0.318074,0.331407,0.323074,0.342518,0.319869,0.324264,0.336963,0.346407,0.340498,0.36474,0.345693,0.353629,0.398074,0.356407,0.359978,0.406407,0.381407,0.189361,0.0105736,0.031407,0.031407,0.018907,0.081407,0.018907,0.031407,0.0647403,-0.018593,0.061407,0.041407,-0.018593,-0.018593,-0.018593,-0.018593,-0.018593,-0.018593,-0.0267334,-0.0293328,-0.0290759,-0.0248127,-0.018593,-0.018593,-0.018593,-0.018593,-0.018593,-0.018593,-0.018593,-0.018593,0.281407,0.181407,0.148074,0.231407,0.231407,0.281407,0.231407,0.243907,0.148074,0.181407,0.118907,0.187657,0.231407,0.268907,0.231407,0.281407,0.198074,0.281407,0.231407,0.031407,0.424631,0.031407,0.531407,0.506407,0.481407,0.481407,0.481407,0.481407,0.481407,0.481407,0.386415,0.392075,0.417258,0.449525,0.474182,0.481407,nan,nan,nan,nan,nan,nan,nan,nan,nan,nan,nan,nan,nan,nan,nan,nan,nan,nan,nan,nan,nan,nan,nan,nan,nan,nan,nan,nan,nan,nan,nan,nan,nan,nan,nan,nan,nan,nan,nan,nan,nan,nan,nan,nan,nan,nan,nan,nan,nan,nan,nan,nan,nan,nan,nan,nan,nan,nan,nan,nan,nan,nan,nan,nan,nan,nan,nan,nan,nan,nan,nan,nan,nan,nan,nan,nan,nan,nan,nan,nan,nan,nan,nan,nan,nan,nan,nan,nan,nan,nan,nan,nan,nan,nan,nan,nan,nan,nan,nan,nan,nan,nan,nan,nan,nan,nan,nan,nan,nan,nan,nan,nan,nan,nan,nan,nan,nan,nan,nan,nan,nan
0.331407,0.31474,0.285952,0.331407,0.331407,0.331407,0.31474,0.296407,0.281407,0.281407,0.252292,0.229609,0.206624,0.197824,0.281407,0.275851,0.222316,0.181407,0.181407,0.148074,0.181407,0.181407,0.181407,0.186514,0.181407,0.176125,0.1537,0.0480736,0.181407,0.155266,0.163947,0.112657,0.206407,0.181407,0.201407,0.21474,0.206407,0.181407,0.231407,0.231407,0.231407,0.152836,0.218907,0.220713,0.227856,0.22286,0.219646,0.131407,0.251407,0.231407,0.221407,0.232891,0.250157,0.256407,0.121407,0.181407,0.239099,0.231407,0.18855,0.23349,0.123074,0.190498,0.186963,0.200638,0.209978,0.202836,0.167771,0.201407,0.200638,0.166407,0.201407,0.175851,0.192121,0.218907,0.200638,0.201407,0.221407,0.22724,0.223715,0.234978,0.237657,0.241933,0.245693,0.25224,0.263225,0.256407,0.281407,0.267771,0.259185,0.286407,0.286407,0.292518,0.295043,0.296407,0.303282,0.31474,0.311407,0.318074,0.306407,0.335253,0.325851,0.348074,0.32724,0.326407,0.341407,0.352836,0.351407,0.345693,0.356407,0.351407,0.381407,0.359185,0.36474,0.177152,0.016407,-0.0130375,0.000156959,0.011407,0.0147403,0.0397403,-0.0352597,0.051407,0.031407,-0.0519264,-0.018593,-0.018593,-0.018593,-0.018593,-0.018593,-0.018593,-0.018593,-0.018593,-0.018593,-0.043593,-0.0519264,-0.018593,-0.018593,-0.018593,-0.018593,-0.018593,-0.018593,-0.018593,-0.018593,-0.018593,-0.018593,0.106407,0.0925181,0.0914069,0.0914069,0.187657,-0.018593,0.173074,0.281407,0.159978,0.198074,0.031407,0.156407,0.281407,0.031407,0.231407,0.442518,1.34807,0.501407,0.369642,0.031407,0.031407,-0.00192637,0.256407,0.481407,0.356407,0.481407,0.481407,0.231407,0.481407,0.481407,0.359762,0.407451,0.453649,0.481407,nan,nan,nan,nan,nan,nan,nan,nan,nan,nan,nan,nan,nan,nan,nan,nan,nan,nan,nan,nan,nan,nan,nan,nan,nan,nan,nan,nan,nan,nan,nan,nan,nan,nan,nan,nan,nan,nan,nan,nan,nan,nan,nan,nan,nan,nan,nan,nan,nan,nan,nan,nan,nan,nan,nan,nan,nan,nan,nan,nan,nan,nan,nan,nan,nan,nan,nan,nan,nan,nan,nan,nan,nan,nan,nan,nan,nan,nan,nan,nan,nan,nan,nan,nan,nan,nan,nan,nan,nan,nan,nan,nan,nan,nan,nan,nan,nan,nan,nan,nan,nan,nan,nan,nan,nan,nan,nan,nan,nan,nan,nan,nan,nan,nan,nan,nan,nan,nan,nan,nan,nan
0.291407,0.291407,0.301407,0.295693,0.306407,0.287657,0.290498,0.281407,0.261407,0.281407,0.281407,0.236192,0.222964,0.21427,0.206357,0.0541342,0.168907,0.118907,0.181407,0.168907,0.181407,0.181407,0.181407,0.181407,0.172502,0.163103,0.14976,0.146578,0.151878,0.160525,0.167652,0.206407,0.131407,0.181407,0.106407,0.181407,0.19262,0.206407,0.231407,0.231407,0.212657,0.161407,0.181407,0.214238,0.231407,0.231407,0.230652,0.256407,0.273074,0.256407,0.206407,0.131407,0.28974,0.281407,0.261407,0.234039,0.20868,0.218074,0.23855,0.181407,0.209978,0.175157,0.186407,0.193907,0.186407,0.21474,0.193907,0.201407,0.18855,0.213225,0.199589,0.202836,0.217771,0.216407,0.201407,0.226862,0.206407,0.234978,0.231407,0.219868,0.223074,0.239099,0.231407,0.253629,0.25833,0.278074,0.256407,0.273715,0.267121,0.275851,0.285574,0.281407,0.285574,0.301407,0.28974,0.30474,0.28855,0.33855,0.313225,0.325157,0.331407,0.327561,0.343907,0.33974,0.326862,0.320296,0.336407,0.337657,0.356407,0.356407,0.343907,0.371407,0.359185,0.15532,-0.018593,-0.018593,0.021407,-0.00859304,-0.028593,-0.00609304,0.00283553,-0.043593,-0.043593,-0.068593,-0.068593,-0.043593,-0.018593,-0.018593,-0.018593,-0.018593,-0.048593,-0.0328788,-0.0519264,-0.043593,-0.038593,-0.028593,-0.018593,-0.018593,-0.018593,-0.018593,-0.018593,-0.018593,-0.018593,-0.018593,-0.018593,-0.018593,-0.018593,-0.018593,-0.018593,-0.018593,-0.00859304,0.018907,0.031407,0.031407,0.00140696,0.0230736,0.031407,0.031407,0.031407,0.031407,0.031407,0.031407,1.88141,0.031407,0.185712,0.031407,0.031407,-0.00192637,-0.018593,-0.018593,-0.018593,-0.018593,-0.018593,-0.018593,0.253738,0.304087,0.362777,0.426554,0.477933,nan,nan,nan,nan,nan,nan,nan,nan,nan,nan,nan,nan,nan,nan,nan,nan,nan,nan,nan,nan,nan,nan,nan,nan,nan,nan,nan,nan,nan,nan,nan,nan,nan,nan,nan,nan,nan,nan,nan,nan,nan,nan,nan,nan,nan,nan,nan,nan,nan,nan,nan,nan,nan,nan,nan,nan,nan,nan,nan,nan,nan,nan,nan,nan,nan,nan,nan,nan,nan,nan,nan,nan,nan,nan,nan,nan,nan,nan,nan,nan,nan,nan,nan,nan,nan,nan,nan,nan,nan,nan,nan,nan,nan,nan,nan,nan,nan,nan,nan,nan,nan,nan,nan,nan,nan,nan,nan,nan,nan,nan,nan,nan,nan,nan,nan,nan,nan,nan,nan,nan,nan
0.304134,0.281407,0.281407,0.299589,0.293907,0.281407,0.281407,0.276407,0.23974,0.231407,0.231407,0.236378,0.231407,0.22257,0.231407,0.231407,0.123074,0.181407,0.181407,0.181407,0.156407,0.156407,0.145693,0.156407,0.163504,0.162821,0.163254,0.181407,0.165412,0.164024,0.181407,0.181407,0.181407,0.181407,0.181407,0.181407,0.181407,0.193907,0.231407,0.161407,0.174264,0.166407,0.181407,0.231407,0.231407,0.235268,0.281407,0.252836,0.245693,0.274264,0.281407,0.281407,0.181407,0.321407,0.253629,0.243907,0.220296,0.228629,0.237657,0.198074,0.216407,0.156407,0.193907,0.206407,0.190498,0.195693,0.181407,0.210574,0.185574,0.198074,0.213225,0.231407,0.206407,0.21474,0.21474,0.211407,0.231407,0.206407,0.224264,0.226861,0.231407,0.226407,0.252836,0.231407,0.262657,0.266022,0.273074,0.275157,0.281407,0.268907,0.281407,0.291407,0.281407,0.285952,0.293907,0.28974,0.301407,0.301407,0.325851,0.318907,0.324264,0.323074,0.331407,0.348074,0.356407,0.33974,0.336963,0.352836,0.331407,0.359978,0.348074,0.337657,0.33855,0.175309,-0.00495668,-0.0119264,-0.0519264,0.0480736,-0.0114502,-0.031093,-0.043593,-0.038593,-0.043593,-0.031093,-0.0519264,-0.0413794,-0.068593,-0.043593,-0.068593,-0.0602597,-0.043593,-0.043593,-0.028593,-0.018593,-0.018593,-0.018593,-0.018593,-0.018593,-0.018593,-0.018593,-0.018593,-0.018593,-0.018593,-0.018593,-0.018593,-0.018593,-0.018593,-0.018593,-0.00859304,0.00997839,0.031407,0.031407,0.011407,0.00140696,0.031407,0.031407,0.031407,0.031407,0.031407,0.031407,0.031407,0.031407,0.031407,0.200149,0.120189,0.031407,0.0545009,0.00640696,0.031407,0.00640696,0.00640696,-0.018593,0.111256,0.14126,0.186799,0.245182,0.312252,0.393262,nan,nan,nan,nan,nan,nan,nan,nan,nan,nan,nan,nan,nan,nan,nan,nan,nan,nan,nan,nan,nan,nan,nan,nan,nan,nan,nan,nan,nan,nan,nan,nan,nan,nan,nan,nan,nan,nan,nan,nan,nan,nan,nan,nan,nan,nan,nan,nan,nan,nan,nan,nan,nan,nan,nan,nan,nan,nan,nan,nan,nan,nan,nan,nan,nan,nan,nan,nan,nan,nan,nan,nan,nan,nan,nan,nan,nan,nan,nan,nan,nan,nan,nan,nan,nan,nan,nan,nan,nan,nan,nan,nan,nan,nan,nan,nan,nan,nan,nan,nan,nan,nan,nan,nan,nan,nan,nan,nan,nan,nan,nan,nan,nan,nan,nan,nan,nan,nan,nan,nan,nan,nan
