0.0259356,0.0250392,0.0235252,0.0161515,0.014771,0.0222773,0.0178738,0.0215191,0.0170076,0.0186352,0.0179723,0.0299864,0.0315659,0.0301753,0.0289907,0.0279522,0.0295646,0.0296684,0.0261325,0.0365153,0.121713,0.130576,0.142879,0.0637308,0.0525194,0.0575873,0.0499496,0.0710175,0.0938947,0.0998503,0.0676065,0.0412964,0.0297528,0.0258196,0.0228845,0.021542,0.043446,0.10687,0.127725,0.105293,0.134765,0.127105,0.123719,0.0925086,0.0901848,0.0896083,0.075382,0.0362778,0.0464807,0.0529318,0.0825197,0.0796915,0.0855088,0.0894428,0.0686085,0.0715035,0.0580342,0.0576208,0.0747625,0.0499094,0.0688175,0.0759902,0.0813302,0.0646493,0.0691932,0.0492405,0.0447761,0.0469278,0.0546153,0.050012,0.0589133,0.053468,0.058984,0.0410072,0.043884,0.0722168,0.044621,0.0529125,0.0370617,0.0388967,0.0331613,0.0415133,0.0321824,0.0299065,0.022011,0.0231312,0.0170977,0.0258933,0.034767,0.0279952,0.0257064,0.025643,0.0405466,0.0611006,0.0654065,0.0443923,0.0334725,0.0341848,0.0225095,0.0204712,0.0283903,0.018296,0.0304292,0.0295973,0.0171494,0.0236504,0.023921,0.026675,0.0610994,0.144811,0.215926,0.294825,0.349773,0.355836,0.253734,0.193992,0.0974433,0.0502472,0.0410812,0.0271262,0.0354465,0.0298727,0.0131821,0.0147123,0.0189115,0.0314282,0.0412533,0.0373877,0.0385284,0.000239733,2.04658e-06,nan,nan,nan,nan,nan,nan,nan,nan,nan,nan,nan,nan,nan,nan,nan,nan,nan,nan,nan,nan,nan,nan,nan,nan,nan,nan,nan,nan,nan,nan,nan,nan,nan,nan,nan,nan,nan,nan,nan,nan,nan,nan,nan,nan,nan,nan,nan,nan,nan,nan,nan,nan,nan,nan,nan,nan,nan,nan,nan,nan,nan,nan,nan,nan,nan,nan,nan,nan,nan,nan,nan,nan,nan,nan,nan,nan,nan,nan,nan,nan,nan,nan,nan,nan,nan,nan,nan,nan,nan,nan,nan,nan,nan,nan,nan,nan,nan,nan,nan,nan,nan,nan,nan,nan,nan,nan,nan,nan,nan,nan,nan,nan,nan,nan,nan,nan,nan,nan,nan,nan,nan,nan,nan,nan,nan,nan,nan,nan,nan,nan,nan,nan,nan,nan,nan,nan,nan,nan,nan,nan,nan,nan,nan,nan,nan,nan,nan,nan,nan,nan,nan,nan,nan,nan,nan,nan,nan,nan,nan,nan,nan,nan,nan,nan,nan,nan,nan,nan,nan
0.0282551,0.0236943,0.0266538,0.0252554,0.0254848,0.0252321,0.022921,0.0226549,0.0209306,0.0250316,0.0255797,0.0314262,0.0321252,0.0387658,0.0380253,0.0372986,0.0313877,0.0333486,0.0326997,0.0445351,0.129644,0.141312,0.110968,0.102031,0.100534,0.0586873,0.0471415,0.0644019,0.0652423,0.0681024,0.0758697,0.0428445,0.0321629,0.034865,0.0323791,0.0449645,0.0396159,0.0900234,0.114334,0.115378,0.116213,0.126344,0.1177,0.0903755,0.0751557,0.0713788,0.0722164,0.0328425,0.0368806,0.0426414,0.0916725,0.0977699,0.0886411,0.0901315,0.0650675,0.0688737,0.053885,0.0469982,0.0452292,0.0650697,0.10034,0.0741374,0.0518843,0.0630376,0.0510369,0.0444053,0.044093,0.060423,0.0456759,0.06718,0.0540473,0.0825908,0.0642986,0.042173,0.032369,0.0366204,0.0408015,0.0292778,0.0285326,0.0258468,0.043499,0.0280165,0.0305417,0.0266915,0.0243616,0.0206402,0.0207789,0.0363239,0.0337873,0.0202654,0.0307817,0.0319549,0.039347,0.0458554,0.0513013,0.0283421,0.0256591,0.0280165,0.0231799,0.027712,0.0192915,0.0255025,0.0232331,0.0240275,0.0201572,0.0139118,0.0184226,0.0184505,0.0649824,0.167343,0.19656,0.303603,0.353371,0.353124,0.233073,0.195184,0.107524,0.0534003,0.0393647,0.031788,0.0390386,0.0340711,0.0149192,0.0171082,0.0232721,0.0289656,0.0399577,0.0398026,0.0376702,0.0394622,0.000463435,nan,nan,nan,nan,nan,nan,nan,nan,nan,nan,nan,nan,nan,nan,nan,nan,nan,nan,nan,nan,nan,nan,nan,nan,nan,nan,nan,nan,nan,nan,nan,nan,nan,nan,nan,nan,nan,nan,nan,nan,nan,nan,nan,nan,nan,nan,nan,nan,nan,nan,nan,nan,nan,nan,nan,nan,nan,nan,nan,nan,nan,nan,nan,nan,nan,nan,nan,nan,nan,nan,nan,nan,nan,nan,nan,nan,nan,nan,nan,nan,nan,nan,nan,nan,nan,nan,nan,nan,nan,nan,nan,nan,nan,nan,nan,nan,nan,nan,nan,nan,nan,nan,nan,nan,nan,nan,nan,nan,nan,nan,nan,nan,nan,nan,nan,nan,nan,nan,nan,nan,nan,nan,nan,nan,nan,nan,nan,nan,nan,nan,nan,nan,nan,nan,nan,nan,nan,nan,nan,nan,nan,nan,nan,nan,nan,nan,nan,nan,nan,nan,nan,nan,nan,nan,nan,nan,nan,nan,nan,nan,nan,nan,nan,nan,nan,nan,nan,nan,nan
0.0314773,0.024879,0.0298734,0.0240725,0.0323088,0.0323742,0.0262753,0.0268024,0.0246608,0.0267974,0.031497,0.0267003,0.0343306,0.0280399,0.035918,0.0289048,0.0367617,0.0485142,0.0379741,0.0460762,0.116337,0.119038,0.123874,0.10744,0.0892164,0.0561313,0.0395974,0.0567242,0.065212,0.0653773,0.0492743,0.0441136,0.0330326,0.0282314,0.0309753,0.0327933,0.0691841,0.0931868,0.111854,0.110313,0.139134,0.0963091,0.08108,0.089309,0.070695,0.0726229,0.07222,0.0379736,0.0359507,0.0436028,0.0715317,0.0911212,0.123818,0.0848704,0.0753095,0.0639894,0.051659,0.0564892,0.0496518,0.0651424,0.0979712,0.0699655,0.0532767,0.0640014,0.0675101,0.0516312,0.0403319,0.0398375,0.0637728,0.0397122,0.0790742,0.0623167,0.0558313,0.0692029,0.0453504,0.080161,0.0397393,0.0379005,0.0372048,0.0350589,0.0370285,0.0384145,0.03988,0.0526296,0.0448958,0.0418876,0.034043,0.0308036,0.0316823,0.0372301,0.0288907,0.0288093,0.0542656,0.0380205,0.0540486,0.0254735,0.0244986,0.0253771,0.0254852,0.0277305,0.0245735,0.0235296,0.0197876,0.0212383,0.0125524,0.02179,0.0245353,0.0227787,0.0632074,0.158694,0.203736,0.313956,0.355483,0.358542,0.227513,0.187428,0.119883,0.0705079,0.0823618,0.0426362,0.0388584,0.0341216,0.0161661,0.0149259,0.024795,0.0284507,0.0388858,0.0404007,0.0408717,0.0464355,0.0347842,0.234884,nan,nan,nan,nan,nan,nan,nan,nan,nan,nan,nan,nan,nan,nan,nan,nan,nan,nan,nan,nan,nan,nan,nan,nan,nan,nan,nan,nan,nan,nan,nan,nan,nan,nan,nan,nan,nan,nan,nan,nan,nan,nan,nan,nan,nan,nan,nan,nan,nan,nan,nan,nan,nan,nan,nan,nan,nan,nan,nan,nan,nan,nan,nan,nan,nan,nan,nan,nan,nan,nan,nan,nan,nan,nan,nan,nan,nan,nan,nan,nan,nan,nan,nan,nan,nan,nan,nan,nan,nan,nan,nan,nan,nan,nan,nan,nan,nan,nan,nan,nan,nan,nan,nan,nan,nan,nan,nan,nan,nan,nan,nan,nan,nan,nan,nan,nan,nan,nan,nan,nan,nan,nan,nan,nan,nan,nan,nan,nan,nan,nan,nan,nan,nan,nan,nan,nan,nan,nan,nan,nan,nan,nan,nan,nan,nan,nan,nan,nan,nan,nan,nan,nan,nan,nan,nan,nan,nan,nan,nan,nan,nan,nan,nan,nan,nan,nan,nan,nan
0.024531,0.0400445,0.0349708,0.0353391,0.0335131,0.0382624,0.0374778,0.0312648,0.0270471,0.0316101,0.0330394,0.0333904,0.0303386,0.0285177,0.0311869,0.0442378,0.04498,0.0472361,0.0534733,0.0509989,0.051668,0.0443396,0.0866871,0.0865884,0.105762,0.0495536,0.0443064,0.0350839,0.0524949,0.0586365,0.0461195,0.034057,0.0336865,0.0317796,0.0310014,0.0292871,0.0503001,0.0736792,0.0866403,0.111503,0.103065,0.100648,0.0789748,0.0782245,0.0936956,0.0979831,0.0993543,0.0851553,0.0674005,0.050844,0.0671107,0.121734,0.0926491,0.0970153,0.0888864,0.0634433,0.0575109,0.0560638,0.042863,0.0966556,0.0803246,0.077069,0.0434593,0.0591392,0.08118,0.0442447,0.0522316,0.0467009,0.0462782,0.0591596,0.0589117,0.0538979,0.0434681,0.0383293,0.0802797,0.0566537,0.0483897,0.0550623,0.0415341,0.0345841,0.0305175,0.023261,0.0266997,0.0445977,0.0623853,0.0645822,0.0411142,0.0433604,0.027675,0.0383132,0.0338828,0.0346413,0.0344984,0.0533946,0.0349975,0.0240861,0.0261956,0.0266103,0.025555,0.0296729,0.0218817,0.0209342,0.022684,0.0200132,0.0180032,0.0216059,0.0232044,0.0349685,0.0714295,0.164081,0.216305,0.327566,0.342825,0.353122,0.223821,0.196487,0.104258,0.088487,0.0854405,0.0419402,0.0592167,0.0345976,0.0366085,0.015614,0.0257757,0.0287323,0.0411168,0.0409144,0.0671304,0.0963847,0.151133,0.134191,0.15779,0.0834843,0.0609197,0.0225873,nan,nan,nan,nan,nan,nan,nan,nan,nan,nan,nan,nan,nan,nan,nan,nan,nan,nan,nan,nan,nan,nan,nan,nan,nan,nan,nan,nan,0.0762945,0.0186482,0.0420521,0.0812026,0.0614624,0.105861,0.102544,0.105728,0.106164,0.106922,0.107954,nan,nan,nan,nan,nan,nan,nan,nan,nan,nan,nan,nan,nan,nan,nan,nan,nan,nan,nan,nan,nan,nan,nan,nan,nan,nan,nan,nan,nan,nan,nan,nan,nan,nan,nan,nan,nan,nan,nan,nan,nan,nan,nan,nan,nan,nan,nan,nan,nan,nan,nan,nan,nan,nan,nan,nan,nan,nan,nan,nan,nan,nan,nan,nan,nan,nan,nan,nan,nan,nan,nan,nan,nan,nan,nan,nan,nan,nan,nan,nan,nan,nan,nan,nan,nan,nan,nan,nan,nan,nan,nan,nan,nan,nan,nan,nan,nan,nan,nan,nan,nan,nan,nan,nan,nan,nan,nan,nan,nan,nan,nan,nan,nan,nan,nan,nan,nan,nan,nan,nan,nan,nan,nan,nan,nan
0.0491694,0.0380287,0.0324644,0.0300359,0.0300338,0.0302381,0.0263361,0.0267282,0.0299666,0.0321089,0.0340407,0.0282305,0.0315912,0.0337798,0.0335822,0.024965,0.0278453,0.0292038,0.0430765,0.0423116,0.0456035,0.0431439,0.0375494,0.04957,0.0453054,0.0389576,0.0344281,0.0377655,0.02268,0.0200463,0.0242774,0.031868,0.0233558,0.0333887,0.0251061,0.0304632,0.0442034,0.073076,0.0948,0.0875575,0.0920274,0.0760623,0.0756367,0.0591672,0.08153,0.127751,0.0988484,0.0916542,0.0799503,0.0621038,0.0564714,0.0806378,0.106195,0.106456,0.0770078,0.0895136,0.0636789,0.0703231,0.0577593,0.0477761,0.0518896,0.0548778,0.0617866,0.0815827,0.0729364,0.0559214,0.0592012,0.0610718,0.0424565,0.0479809,0.0603776,0.0485615,0.039643,0.0677443,0.0599971,0.0681187,0.0511268,0.0462492,0.055331,0.0339612,0.0327481,0.0295965,0.0452367,0.0470985,0.0510351,0.0433043,0.0434294,0.0448537,0.0274577,0.0316924,0.0233934,0.0270405,0.0401112,0.0305885,0.0435056,0.0274971,0.0207428,0.0331266,0.0244226,0.0213162,0.0267107,0.0217986,0.0220965,0.0223802,0.0277409,0.0222653,0.029558,0.0288908,0.0791557,0.159705,0.215783,0.339197,0.344913,0.356191,0.23255,0.191582,0.0951907,0.052335,0.0518071,0.047595,0.0580143,0.0544798,0.0332503,0.0262682,0.0258206,0.0359278,0.0429306,0.0578008,0.0770449,0.100741,0.113409,0.12618,0.110771,0.065015,0.073113,0.0598329,0.0396708,nan,nan,nan,nan,nan,nan,nan,nan,nan,nan,nan,nan,nan,nan,nan,nan,nan,nan,nan,nan,nan,nan,nan,nan,nan,nan,0.0321031,0.0325822,0.036583,0.0501492,0.0492986,0.0609239,0.0748762,0.0751077,0.0802021,0.107644,0.108399,0.109339,0.110723,nan,nan,nan,nan,nan,nan,nan,nan,nan,nan,nan,nan,nan,nan,nan,nan,nan,nan,nan,nan,nan,nan,nan,nan,nan,nan,nan,nan,nan,nan,nan,nan,nan,nan,nan,nan,nan,nan,nan,nan,nan,nan,nan,nan,nan,nan,nan,nan,nan,nan,nan,nan,nan,nan,nan,nan,nan,nan,nan,nan,nan,nan,nan,nan,nan,nan,nan,nan,nan,nan,nan,nan,nan,nan,nan,nan,nan,nan,nan,nan,nan,nan,nan,nan,nan,nan,nan,nan,nan,nan,nan,nan,nan,nan,nan,nan,nan,nan,nan,nan,nan,nan,nan,nan,nan,nan,nan,nan,nan,nan,nan,nan,nan,nan,nan,nan,nan,nan,nan,nan,nan,nan,nan,nan
0.0390809,0.0441011,0.0312558,0.0245181,0.0256014,0.027216,0.0202444,0.0161416,0.0215061,0.028315,0.0298603,0.0304896,0.0366822,0.0297594,0.0250462,0.0245163,0.0241587,0.0389581,0.0468998,0.0395481,0.0360343,0.0383855,0.0379785,0.0427818,0.0318663,0.0325972,0.0288047,0.0258419,0.0248077,0.0192211,0.0290142,0.0194976,0.0204009,0.0260039,0.0239352,0.0258315,0.0278078,0.0207813,0.0374608,0.0473897,0.0533866,0.0528903,0.0592413,0.0726118,0.124732,0.122967,0.115336,0.0981035,0.0842668,0.0845978,0.0658663,0.065809,0.115619,0.107572,0.118092,0.0874687,0.112349,0.0831951,0.0704404,0.0554523,0.0612357,0.0786124,0.0745883,0.0521809,0.0579695,0.068585,0.0688382,0.0470367,0.0394775,0.0479035,0.0709193,0.0536715,0.0430172,0.0497594,0.0319121,0.0529812,0.0290436,0.0571171,0.0389434,0.0426064,0.029187,0.0418017,0.0298944,0.041443,0.0527211,0.0557124,0.0596132,0.0681105,0.0373973,0.0369478,0.0337543,0.0284238,0.0267071,0.0208193,0.0308026,0.0249805,0.030484,0.0319831,0.0317257,0.0259468,0.0290888,0.0261218,0.0253712,0.0343279,0.0271589,0.021942,0.0279108,0.0301869,0.0733009,0.155302,0.211885,0.345746,0.356901,0.37375,0.24462,0.190721,0.0767717,0.023811,0.0252369,0.0289142,0.0473094,0.0403128,0.0467827,0.0287203,0.0270333,0.0390305,0.0478721,0.0601735,0.0774319,0.0933121,0.0929007,0.106969,0.0808807,0.0714417,0.0688022,0.0647293,0.0590315,0.0469085,nan,nan,nan,nan,nan,nan,nan,nan,nan,nan,nan,nan,nan,nan,nan,nan,nan,nan,nan,nan,nan,nan,nan,nan,0.0294525,0.0261726,0.031079,0.0333126,0.0376194,0.0428276,0.0485214,0.0495472,0.0495784,0.0510341,0.0524624,0.055549,0.0528096,0.109507,0.110723,nan,nan,nan,nan,nan,nan,nan,nan,nan,nan,nan,nan,nan,nan,nan,nan,nan,nan,nan,nan,nan,nan,nan,nan,nan,nan,nan,nan,nan,nan,nan,nan,nan,nan,nan,nan,nan,nan,nan,nan,nan,nan,nan,nan,nan,nan,nan,nan,nan,nan,nan,nan,nan,nan,nan,nan,nan,nan,nan,nan,nan,nan,nan,nan,nan,nan,nan,nan,nan,nan,nan,nan,nan,nan,nan,nan,nan,nan,nan,nan,nan,nan,nan,nan,nan,nan,nan,nan,nan,nan,nan,nan,nan,nan,nan,nan,nan,nan,nan,nan,nan,nan,nan,nan,nan,nan,nan,nan,nan,nan,nan,nan,nan,nan,nan,nan,nan,nan,nan,nan,nan,nan,nan
0.0368148,0.0271411,0.0377223,0.111047,0.0965654,0.0992303,0.0153566,0.0120517,0.0169277,0.0264593,0.02791,0.0392788,0.0386314,0.0254248,0.0191693,0.0182269,0.11558,0.117919,0.104223,0.042653,0.036115,0.028677,0.0396241,0.0436501,0.0364723,0.0444735,0.0307457,0.0287654,0.0237608,0.0309369,0.031065,0.0729013,0.0722558,0.0628813,0.0236735,0.0207559,0.022659,0.0262996,0.0247688,0.037523,0.0371768,0.0461695,0.0412466,0.0412214,0.0401875,0.0318989,0.0382276,0.0426604,0.0377149,0.0580677,0.0630752,0.0689911,0.11017,0.122817,0.152383,0.200057,0.183277,0.167451,0.0617156,0.047188,0.0681628,0.0678021,0.0570941,0.0720281,0.0700307,0.0739174,0.0539477,0.0562278,0.0603287,0.0514121,0.0545856,0.0550385,0.0699764,0.0485101,0.0558617,0.0392772,0.030886,0.0382485,0.0552838,0.0260513,0.0250691,0.0245674,0.0371284,0.0447229,0.0363445,0.048923,0.0649291,0.0509457,0.045206,0.0294233,0.0299245,0.0243536,0.0230105,0.0338765,0.0298379,0.0254691,0.0324495,0.0321758,0.0259017,0.0307541,0.0281394,0.0281144,0.0350223,0.0282662,0.0374096,0.024759,0.023816,0.0323512,0.0688317,0.165034,0.208535,0.338269,0.36668,0.344689,0.239626,0.18681,0.0807744,0.0287397,0.0265281,0.0278601,0.029833,0.0371558,0.0329109,0.0361866,0.0359138,0.0489527,0.0476978,0.0585557,0.0762731,0.0792836,0.101015,0.0838035,0.0696401,0.0628653,0.0765347,0.0691236,0.0658131,0.0619142,nan,nan,nan,nan,nan,nan,nan,nan,nan,nan,nan,nan,nan,nan,nan,nan,nan,nan,nan,nan,nan,nan,nan,nan,0.0297207,0.031144,0.0327832,0.0341027,0.0387795,0.0403152,0.0409135,0.0440726,0.0425074,0.041236,0.0407349,0.0446052,0.0471466,0.0443558,0.0509865,0.0469256,nan,nan,nan,nan,nan,nan,nan,nan,nan,nan,nan,nan,nan,nan,nan,nan,nan,nan,nan,nan,nan,nan,nan,nan,nan,nan,nan,nan,nan,nan,nan,nan,nan,nan,nan,nan,nan,nan,nan,nan,nan,nan,nan,nan,nan,nan,nan,nan,nan,nan,nan,nan,nan,nan,nan,nan,nan,nan,nan,nan,nan,nan,nan,nan,nan,nan,nan,nan,nan,nan,nan,nan,nan,nan,nan,nan,nan,nan,nan,nan,nan,nan,nan,nan,nan,nan,nan,nan,nan,nan,nan,nan,nan,nan,nan,nan,nan,nan,nan,nan,nan,nan,nan,nan,nan,nan,nan,nan,nan,nan,nan,nan,nan,nan,nan,nan,nan,nan,nan,nan,nan,nan
0.0295728,0.0216742,0.0351038,0.114663,0.113034,0.091338,0.0110489,0.00758204,0.0122322,0.0226503,0.0191731,0.0383412,0.0388741,0.0267682,0.018935,0.0187901,0.114362,0.115578,0.0942873,0.0331691,0.0328607,0.0270181,0.038151,0.0401452,0.0429485,0.0341302,0.0347601,0.0376703,0.0279404,0.0290997,0.0257649,0.0643135,0.0727981,0.0588592,0.0399639,0.0270744,0.0324667,0.0225752,0.0211612,0.0754877,0.0982095,0.0968777,0.0678409,0.0755382,0.0875913,0.0928999,0.0452028,0.0854705,0.135657,0.134458,0.149734,0.125148,0.127522,0.126348,0.143222,0.176061,0.193896,0.167419,0.133441,0.0917164,0.102495,0.0892188,0.108293,0.0754792,0.0775694,0.091535,0.0777911,0.0808712,0.0500601,0.0291534,0.0356169,0.0481774,0.0433182,0.0759078,0.0474537,0.0719486,0.041205,0.0333942,0.0454374,0.0292564,0.0299323,0.0391131,0.037981,0.0372434,0.0529635,0.0475762,0.0555868,0.0602222,0.0397927,0.0395846,0.0372035,0.0285169,0.0307691,0.0432241,0.0384066,0.0345373,0.0315892,0.0325049,0.0278194,0.0341912,0.0256181,0.0364584,0.0269674,0.0312598,0.0303139,0.0264599,0.0309283,0.0296306,0.0664785,0.16255,0.217594,0.324873,0.339117,0.359871,0.233453,0.186545,0.0842571,0.0362291,0.0307585,0.0375669,0.0434203,0.0367905,0.0376323,0.0404988,0.0527037,0.0490345,0.0586135,0.0760363,0.0841641,0.0738322,0.0945423,0.0972647,0.0732452,0.0603451,0.0659136,0.0700329,0.0648188,0.0515604,0.053076,0.0499817,0.0490777,0.0434516,0.0460987,0.0440938,0.0288787,0.0289192,0.0235278,0.0243938,0.0264225,0.0182942,0.0204607,0.0189524,0.0241094,0.0181103,0.0183367,0.0232607,0.0251674,0.0214549,0.0333306,0.0333155,0.0277275,0.0359479,0.0333236,0.041676,0.0384088,0.0390425,0.0421523,0.0353148,0.0502617,0.0496153,0.0495877,0.0489846,0.0471693,0.0480845,0.0399121,0.0407805,0.0404908,0.0464497,nan,nan,nan,nan,nan,nan,nan,nan,nan,nan,nan,nan,nan,nan,nan,nan,nan,nan,nan,nan,nan,nan,nan,nan,nan,nan,nan,nan,nan,nan,nan,nan,nan,nan,nan,nan,nan,nan,nan,nan,nan,nan,nan,nan,nan,nan,nan,nan,nan,nan,nan,nan,nan,nan,nan,nan,nan,nan,nan,nan,nan,nan,nan,nan,nan,nan,nan,nan,nan,nan,nan,nan,nan,nan,nan,nan,nan,nan,nan,nan,nan,nan,nan,nan,nan,nan,nan,nan,nan,nan,nan,nan,nan,nan,nan,nan,nan,nan,nan,nan,nan,nan,nan,nan,nan,nan,nan,nan,nan,nan,nan,nan,nan,nan,nan,nan,nan,nan,nan,nan,nan,nan
0.0332316,0.0237852,0.0329453,0.0918081,0.0897905,0.0886576,0.00420137,0.00421007,0.0116394,0.0123354,0.0163567,0.0370965,0.0269508,0.0287403,0.0208412,0.0191206,0.114369,0.0893095,0.101838,0.0309123,0.0267932,0.0215186,0.0352059,0.0374165,0.0406135,0.0409505,0.0430591,0.0352054,0.028787,0.0228483,0.0219768,0.0645503,0.0675196,0.0557131,0.0431309,0.0347436,0.030116,0.0393184,0.0324193,0.0921144,0.104711,0.0673872,0.0697672,0.0773226,0.0875476,0.0919642,0.0465079,0.063235,0.07958,0.131029,0.0956058,0.103984,0.124305,0.0865011,0.114115,0.172032,0.111428,0.145401,0.104185,0.10158,0.0847968,0.106058,0.0731569,0.0621013,0.0774823,0.0867924,0.0923334,0.0741108,0.053647,0.0760695,0.0568902,0.0619783,0.0664009,0.0667492,0.0862539,0.0559924,0.0639852,0.0478964,0.0591363,0.0490799,0.054948,0.0423525,0.0457992,0.0404712,0.0392164,0.0484827,0.0515709,0.0744269,0.0446931,0.0523408,0.0386454,0.0328524,0.0509791,0.0357621,0.0506422,0.0314046,0.036244,0.0307209,0.0315721,0.02805,0.0338218,0.025026,0.0332852,0.0294815,0.0308101,0.0307357,0.0254277,0.028106,0.0582425,0.155328,0.205104,0.327595,0.355803,0.341598,0.22691,0.185759,0.0890546,0.0455835,0.0407935,0.0407692,0.0485299,0.0513862,0.0447788,0.0507954,0.0585272,0.0620377,0.0669739,0.0721885,0.073711,0.0772602,0.0912922,0.0686317,0.0627736,0.0561801,0.0656301,0.0670399,0.0565876,0.0536843,0.0493087,0.044204,0.045478,0.040811,0.0388152,0.0384495,0.0305891,0.0288783,0.0235334,0.0272284,0.0232552,0.0219105,0.0210212,0.0239035,0.02547,0.0249437,0.0240339,0.0333336,0.0303237,0.0311238,0.0345907,0.0350311,0.0346784,0.0342098,0.0356368,0.0318175,0.038845,0.0392264,0.0348285,0.0400446,0.0333341,0.0426323,0.0408017,0.0400988,0.039143,0.0395367,0.0402028,0.0228253,0.0226696,0.022834,nan,nan,nan,nan,nan,nan,nan,nan,nan,nan,nan,nan,nan,nan,nan,nan,nan,nan,nan,nan,nan,nan,nan,nan,nan,nan,nan,nan,nan,nan,nan,nan,nan,nan,nan,nan,nan,nan,nan,nan,nan,nan,nan,nan,nan,nan,nan,nan,nan,nan,nan,nan,nan,nan,nan,nan,nan,nan,nan,nan,nan,nan,nan,nan,nan,nan,nan,nan,nan,nan,nan,nan,nan,nan,nan,nan,nan,nan,nan,nan,nan,nan,nan,nan,nan,nan,nan,nan,nan,nan,nan,nan,nan,nan,nan,nan,nan,nan,nan,nan,nan,nan,nan,nan,nan,nan,nan,nan,nan,nan,nan,nan,nan,nan,nan,nan,nan,nan,nan,nan,nan,nan
0.0335346,0.0236896,0.0167184,0.0137349,0.00774452,0.00596847,0.00533236,0.0120196,0.0126949,0.00889686,0.0140445,0.0252286,0.0291618,0.0248481,0.0213085,0.0196922,0.0428312,0.0435763,0.0417308,0.0319954,0.0272765,0.0171496,0.0313036,0.0331851,0.03657,0.0407276,0.0418387,0.0342442,0.0285449,0.0220793,0.0192981,0.0249567,0.0416991,0.0496449,0.0638169,0.0407358,0.0513015,0.0675554,0.050875,0.0980662,0.0814169,0.0905042,0.0711807,0.0827501,0.0841936,0.0930173,0.0266893,0.0628702,0.127883,0.129884,0.135125,0.0898022,0.116226,0.100422,0.0920452,0.0914884,0.113929,0.104026,0.0874428,0.0816492,0.0709764,0.106531,0.0780657,0.080176,0.084119,0.0632503,0.0916476,0.0772369,0.0727451,0.0637659,0.0808837,0.0603766,0.0670313,0.0844633,0.0844022,0.0796607,0.0623904,0.0564224,0.0568129,0.058985,0.0384112,0.0534406,0.0348584,0.0427269,0.03562,0.0471955,0.072941,0.050684,0.0548699,0.040864,0.0380851,0.0471789,0.0383695,0.0526201,0.0362926,0.038444,0.0293062,0.034195,0.0256924,0.0359786,0.0264723,0.0341694,0.0296114,0.0269117,0.0346419,0.0307937,0.0366227,0.0401268,0.074481,0.153583,0.193108,0.316772,0.346052,0.355086,0.220141,0.172304,0.0868342,0.0427903,0.0418783,0.0429686,0.0496381,0.0557802,0.0565144,0.0608544,0.0591995,0.0597784,0.0653514,0.0655408,0.069864,0.0494385,0.0604452,0.0550887,0.0531383,0.0534625,0.0634179,0.0573389,0.0540833,0.0501522,0.0457736,0.0518866,0.0465698,0.040181,0.0387244,0.0370772,0.0378482,0.0315122,0.0326269,0.0266511,0.0263535,0.0231874,0.016871,0.020906,0.0181228,0.0215919,0.0258694,0.0275082,0.035039,0.0275168,0.0301795,0.0310721,0.0323479,0.0322139,0.0321759,0.0381258,0.0400981,0.0344692,0.0358158,0.0339248,0.0297928,0.0314181,0.0178881,0.019301,0.0196842,0.0179959,0.0203742,0.0202874,0.0216096,0.0269609,nan,nan,nan,nan,nan,nan,nan,nan,nan,nan,nan,nan,nan,nan,nan,nan,nan,nan,nan,nan,nan,nan,nan,nan,nan,nan,nan,nan,nan,nan,nan,nan,nan,nan,nan,nan,nan,nan,nan,nan,nan,nan,nan,nan,nan,nan,nan,nan,nan,nan,nan,nan,nan,nan,nan,nan,nan,nan,nan,nan,nan,nan,nan,nan,nan,nan,nan,nan,nan,nan,nan,nan,nan,nan,nan,nan,nan,nan,nan,nan,nan,nan,nan,nan,nan,nan,nan,nan,nan,nan,nan,nan,nan,nan,nan,nan,nan,nan,nan,nan,nan,nan,nan,nan,nan,nan,nan,nan,nan,nan,nan,nan,nan,nan,nan,nan,nan,nan,nan,nan,nan,nan
0.0190253,0.0295095,0.0178435,0.0167947,0.0182489,0.016225,0.014008,0.0132437,0.0177645,0.0183678,0.01537,0.0206025,0.024795,0.0233227,0.0225175,0.0216646,0.0359967,0.03251,0.0301174,0.0315086,0.0297793,0.0150931,0.0290195,0.0331851,0.0343758,0.0405426,0.037177,0.0378549,0.0354226,0.0276168,0.0188492,0.0181741,0.0176731,0.0397188,0.0551384,0.0525212,0.0596497,0.0561282,0.0604507,0.0610438,0.0493836,0.0392046,0.0397884,0.0411787,0.0392266,0.0435633,0.0376314,0.0391003,0.0351675,0.0310332,0.0545172,0.104254,0.10539,0.122029,0.0994349,0.0920285,0.0992703,0.0920302,0.0904515,0.0906733,0.106893,0.105997,0.110547,0.087667,0.0600947,0.0835297,0.102207,0.0676695,0.0709122,0.0623019,0.0713976,0.0586241,0.0735338,0.0568302,0.053369,0.0868884,0.0649476,0.0543065,0.0576457,0.0557822,0.0527216,0.0501046,0.0692626,0.060877,0.0621674,0.0571764,0.0622485,0.0622826,0.0609861,0.0571521,0.0559015,0.0560753,0.0474152,0.0632504,0.0466411,0.0438434,0.0479989,0.0488309,0.0423342,0.0435525,0.0420573,0.0387695,0.0408246,0.0402801,0.0411544,0.0443577,0.040216,0.0500359,0.0846083,0.149007,0.192593,0.316077,0.329804,0.338369,0.217849,0.17972,0.0864403,0.0470497,0.0451203,0.0482789,0.0448821,0.0483644,0.0559161,0.0526089,0.058177,0.0576864,0.0472412,0.0554485,0.0493822,0.0448848,0.0443864,0.0475647,0.042465,0.0437959,0.0393091,0.0473955,0.0501476,0.0458352,0.048525,0.0484697,0.038405,0.038061,0.0372546,0.0390075,0.0299897,0.0358878,0.030497,0.02819,0.0244964,0.0243806,0.0247693,0.0250486,0.0254939,0.0294963,0.0313831,0.0277854,0.0323943,0.0304935,0.0283419,0.0257969,0.0313087,0.0296109,0.0331686,0.0309339,0.0391483,0.0399541,0.0343851,0.041065,0.0312619,0.0241721,0.0156998,0.0155892,0.0159795,0.0156806,0.0149752,0.016366,0.0128074,0.0147068,0.000200818,nan,nan,nan,nan,nan,nan,nan,nan,nan,nan,nan,nan,nan,nan,nan,nan,nan,nan,nan,nan,nan,nan,nan,nan,nan,nan,nan,nan,nan,nan,nan,nan,nan,nan,nan,nan,nan,nan,nan,nan,nan,nan,nan,nan,nan,nan,nan,nan,nan,nan,nan,nan,nan,nan,nan,nan,nan,nan,nan,nan,nan,nan,nan,nan,nan,nan,nan,nan,nan,nan,nan,nan,nan,nan,nan,nan,nan,nan,nan,nan,nan,nan,nan,nan,nan,nan,nan,nan,nan,nan,nan,nan,nan,nan,nan,nan,nan,nan,nan,nan,nan,nan,nan,nan,nan,nan,nan,nan,nan,nan,nan,nan,nan,nan,nan,nan,nan,nan,nan,nan,nan
0.0194403,0.0115437,0.0198118,0.0299814,0.0261089,0.0231102,0.0211021,0.00893724,0.0172372,0.0204592,0.0236588,0.0156347,0.0217836,0.0278983,0.0328103,0.0319972,0.0360357,0.0330501,0.0302676,0.0168246,0.0152981,0.0115734,0.0210501,0.0294481,0.0298871,0.0256429,0.031148,0.0371648,0.0321633,0.0253123,0.0193967,0.0198916,0.0206531,0.0510829,0.0477066,0.0488426,0.0525284,0.0515453,0.0542838,0.0608568,0.0560115,0.046799,0.0339106,0.0346617,0.0437281,0.0364009,0.0348155,0.0287695,0.0329804,0.0278098,0.029114,0.029021,0.0328642,0.0639354,0.0673635,0.0699149,0.0658149,0.0585529,0.0527082,0.0431206,0.0413145,0.0341894,0.0371187,0.0503398,0.0515663,0.098357,0.0995103,0.0985187,0.0685728,0.0669002,0.0721033,0.0680191,0.0728608,0.0692719,0.0781978,0.0696852,0.0883878,0.0599248,0.0703937,0.0622144,0.0788072,0.0762934,0.0749632,0.0779156,0.0780602,0.0807531,0.0916824,0.095979,0.0968369,0.0818297,0.0840629,0.0789264,0.0723848,0.0598679,0.0710617,0.0714034,0.0824918,0.0731873,0.0742029,0.0626647,0.0726798,0.0651545,0.0623512,0.0625992,0.057922,0.0681928,0.0681925,0.0737542,0.0980932,0.175633,0.221851,0.3209,0.306289,0.305802,0.199807,0.166547,0.0783519,0.0394415,0.0417973,0.041868,0.0449697,0.0419264,0.0409949,0.0386526,0.0430909,0.0395411,0.0371878,0.0370934,0.0393135,0.0438557,0.0434933,0.0388691,0.0368786,0.0369674,0.0405354,0.0359116,0.0356004,0.0376175,0.0303211,0.0289495,0.0281924,0.0289991,0.0287355,0.0323253,0.0327412,0.0274036,0.0239111,0.0246146,0.0216396,0.0269776,0.0284412,0.0248087,0.0305204,0.0319122,0.0281127,0.0257694,0.027228,0.0325718,0.0360305,0.0286956,0.0285259,0.0306447,0.0363749,0.0285608,0.0306786,0.0318471,0.0409216,0.0370465,0.0262024,0.0210316,0.015583,0.0152813,0.0149561,0.00883755,0.00919661,0.00771114,0.00678446,0.0104698,1,nan,nan,nan,nan,nan,nan,nan,nan,nan,nan,nan,nan,nan,nan,nan,nan,nan,nan,nan,nan,nan,nan,nan,nan,nan,nan,nan,nan,nan,nan,nan,nan,nan,nan,nan,nan,nan,nan,nan,nan,nan,nan,nan,nan,nan,nan,nan,nan,nan,nan,nan,nan,nan,nan,nan,nan,nan,nan,nan,nan,nan,nan,nan,nan,nan,nan,nan,nan,nan,nan,nan,nan,nan,nan,nan,nan,nan,nan,nan,nan,nan,nan,nan,nan,nan,nan,nan,nan,nan,nan,nan,nan,nan,nan,nan,nan,nan,nan,nan,nan,nan,nan,nan,nan,nan,nan,nan,nan,nan,nan,nan,nan,nan,nan,nan,nan,nan,nan,nan,nan,nan
0.0160581,0.0216426,0.0151705,0.0263964,0.027166,0.0212336,0.0205539,0.00944148,0.0140106,0.017843,0.0209575,0.0202361,0.0158377,0.0337526,0.0331585,0.0324191,0.0330837,0.0331365,0.0147152,0.0117319,0.0121646,0.0173656,0.0207339,0.019294,0.0210186,0.0314471,0.0252794,0.0275328,0.0343851,0.0271706,0.0209417,0.0139818,0.0185173,0.0436166,0.0866515,0.096461,0.189128,0.187946,0.189515,0.0586198,0.0540481,0.052009,0.0203646,0.0236136,0.0247608,0.0253026,0.0279873,0.0383427,0.0471212,0.102076,0.105962,0.111481,0.0983954,0.150673,0.14336,0.160672,0.147891,0.129583,0.125458,0.110704,0.0925755,0.104352,0.104725,0.106018,0.108183,0.107492,0.112882,0.110088,0.103199,0.110936,0.1054,0.1072,0.101951,0.109524,0.114366,0.113944,0.107107,0.0921151,0.0792249,0.0705686,0.0592703,0.0914202,0.0703664,0.0733849,0.0891975,0.0764829,0.0773287,0.101537,0.0764212,0.0891936,0.0857064,0.085561,0.083053,0.0701244,0.0756008,0.0819364,0.086396,0.0769404,0.0736373,0.0765395,0.0644209,0.0718292,0.0635357,0.066012,0.0700079,0.0681228,0.072902,0.0716515,0.093191,0.161682,0.216229,0.264137,0.311632,0.280842,0.17948,0.135639,0.0576745,0.0291317,0.0274478,0.0292653,0.0293825,0.0289384,0.0292755,0.029869,0.0331701,0.0343669,0.0328869,0.0339923,0.0349046,0.0338779,0.0375167,0.0376798,0.0312791,0.0361807,0.031931,0.0363158,0.0332239,0.0349695,0.02785,0.0271564,0.0295722,0.0258314,0.030026,0.0332762,0.0263235,0.0299422,0.0268335,0.0310267,0.0316794,0.0316621,0.0322117,0.025703,0.0372031,0.030488,0.0264784,0.030556,0.0308839,0.0311104,0.0335127,0.0372679,0.0297579,0.0341536,0.0318055,0.0412376,0.0382205,0.0309258,0.0344063,0.0300455,0.0301862,0.0332245,0.0125281,0.0328339,0.0349219,0.0062078,0.00299244,0.0026034,0.00347496,0.00737406,0.0176583,nan,nan,nan,nan,nan,nan,nan,nan,nan,nan,nan,nan,nan,nan,nan,nan,nan,nan,nan,nan,nan,nan,nan,nan,nan,nan,nan,nan,nan,nan,nan,nan,nan,nan,nan,nan,nan,nan,nan,nan,nan,nan,nan,nan,nan,nan,nan,nan,nan,nan,nan,nan,nan,nan,nan,nan,nan,nan,nan,nan,nan,nan,nan,nan,nan,nan,nan,nan,nan,nan,nan,nan,nan,nan,nan,nan,nan,nan,nan,nan,nan,nan,nan,nan,nan,nan,nan,nan,nan,nan,nan,nan,nan,nan,nan,nan,nan,nan,nan,nan,nan,nan,nan,nan,nan,nan,nan,nan,nan,nan,nan,nan,nan,nan,nan,nan,nan,nan,nan,nan,nan
0.0167312,0.0218858,0.0196172,0.0257442,0.0598165,0.059016,0.120821,0.119258,0.118784,0.0138924,0.0156893,0.0134942,0.00805172,0.0130824,0.0189505,0.0205957,0.0208306,0.0193496,0.0132766,0.0113658,0.0193435,0.0280601,0.0197823,0.0187161,0.0286659,0.0268105,0.0243673,0.0294174,0.0299681,0.0263819,0.0281093,0.0219512,0.035929,0.0382071,0.0810297,0.0790797,0.123099,0.182955,0.155103,0.0603999,0.0581686,0.0495714,0.0394245,0.0215495,0.0249198,0.0259379,0.0303045,0.0336352,0.0634485,0.0705442,0.114042,0.10756,0.109751,0.104998,0.157514,0.138644,0.148694,0.143804,0.138512,0.108052,0.0782229,0.101688,0.116992,0.108673,0.122514,0.0941667,0.126489,0.104281,0.129332,0.0991618,0.118765,0.105697,0.114893,0.0890064,0.133446,0.116214,0.122995,0.0874244,0.0736538,0.0662974,0.0611071,0.0544726,0.0545985,0.059667,0.0666352,0.061908,0.0740901,0.0885957,0.0722319,0.0809509,0.0766066,0.0735553,0.0656979,0.0827029,0.0609287,0.0480877,0.0584671,0.08025,0.0642658,0.0552752,0.0652999,0.0546368,0.0509894,0.0570947,0.0560323,0.0515914,0.0528031,0.066926,0.0842504,0.134215,0.160877,0.255137,0.254031,0.252011,0.176673,0.139313,0.0732565,0.0272124,0.024737,0.0251479,0.0264446,0.0277902,0.0282805,0.0291269,0.0288044,0.0285503,0.028502,0.0266025,0.0279382,0.0311853,0.0321634,0.0290987,0.025854,0.0266364,0.033712,0.0305619,0.0343222,0.0396407,0.0313597,0.029063,0.0255084,0.0336753,0.0339812,0.0372286,0.0364071,0.0384656,0.0393961,0.0271139,0.0349569,0.0314605,0.0323329,0.0310006,0.0285967,0.0368827,0.0304116,0.0363131,0.0364122,0.037579,0.0363011,0.0372238,0.0366332,0.0325125,0.041816,0.0403359,0.037616,0.0363615,0.0521162,0.0446026,0.059477,0.0743225,0.0742394,0.0849151,0.0920286,0.0892195,0.128728,0.111498,0.00711025,0.0113858,1,nan,nan,nan,nan,nan,nan,nan,nan,nan,nan,nan,nan,nan,nan,nan,nan,nan,nan,nan,nan,nan,nan,nan,nan,nan,nan,nan,nan,nan,nan,nan,nan,nan,nan,nan,nan,nan,nan,nan,nan,nan,nan,nan,nan,nan,nan,nan,nan,nan,nan,nan,nan,nan,nan,nan,nan,nan,nan,nan,nan,nan,nan,nan,nan,nan,nan,nan,nan,nan,nan,nan,nan,nan,nan,nan,nan,nan,nan,nan,nan,nan,nan,nan,nan,nan,nan,nan,nan,nan,nan,nan,nan,nan,nan,nan,nan,nan,nan,nan,nan,nan,nan,nan,nan,nan,nan,nan,nan,nan,nan,nan,nan,nan,nan,nan,nan,nan,nan,nan,nan,nan
0.0232685,0.0261862,0.0353587,0.0274802,0.0625866,0.0598628,0.0923508,0.119241,0.118422,0.0132374,0.0169442,0.0117391,0.0129102,0.01149,0.0151187,0.0157324,0.0154389,0.0156292,0.00985176,0.00747056,0.0150347,0.0339019,0.0437069,0.0287741,0.0251712,0.0309746,0.0206773,0.0279225,0.0277005,0.0328916,0.0403253,0.027994,0.0431878,0.0436032,0.0816573,0.0904094,0.124762,0.183104,0.154758,0.0608741,0.0604473,0.059981,0.0507905,0.0257819,0.0279329,0.0294575,0.0366689,0.0469697,0.0703104,0.115241,0.117866,0.122874,0.106578,0.164182,0.166253,0.16953,0.151838,0.146869,0.114072,0.111233,0.0792649,0.108459,0.111218,0.116949,0.117865,0.117243,0.113065,0.119773,0.118065,0.12085,0.112129,0.110581,0.103919,0.118985,0.115556,0.123637,0.104938,0.112731,0.0872436,0.0900901,0.088657,0.0697956,0.0689155,0.0706859,0.0690666,0.073891,0.0764811,0.0732324,0.0634155,0.0660198,0.0811884,0.074648,0.0758153,0.0837967,0.071571,0.0565655,0.0713626,0.0788795,0.0752079,0.0599099,0.0639214,0.0559468,0.054117,0.053732,0.0479379,0.0498177,0.0408609,0.0495222,0.06436,0.106633,0.143165,0.235494,0.243476,0.231818,0.16288,0.137655,0.064825,0.0330522,0.0214776,0.0270868,0.0333582,0.0299127,0.0268839,0.0305765,0.0271461,0.026267,0.0258314,0.0269136,0.0300443,0.0333421,0.0313514,0.0294271,0.0307906,0.0320941,0.0313156,0.0312204,0.039781,0.0341513,0.0330889,0.0360351,0.035061,0.0374817,0.0542904,0.04722,0.0462238,0.0449346,0.0349297,0.0367712,0.0311631,0.0309105,0.0393544,0.0426432,0.0473003,0.0482723,0.0557455,0.0500394,0.0579208,0.0327342,0.0392311,0.0393199,0.0402185,0.037004,0.0394565,0.0437458,0.0455544,0.0378988,0.0472614,0.0621038,0.0928037,0.107933,0.110741,0.105,0.110112,0.138179,0.135651,0.180875,0.0221241,0.0300491,0.0156312,nan,nan,nan,nan,nan,nan,nan,nan,nan,nan,nan,nan,nan,nan,nan,nan,nan,nan,nan,nan,nan,nan,nan,nan,nan,nan,nan,nan,nan,nan,nan,nan,nan,nan,nan,nan,nan,nan,nan,nan,nan,nan,nan,nan,nan,nan,nan,nan,nan,nan,nan,nan,nan,nan,nan,nan,nan,nan,nan,nan,nan,nan,nan,nan,nan,nan,nan,nan,nan,nan,nan,nan,nan,nan,nan,nan,nan,nan,nan,nan,nan,nan,nan,nan,nan,nan,nan,nan,nan,nan,nan,nan,nan,nan,nan,nan,nan,nan,nan,nan,nan,nan,nan,nan,nan,nan,nan,nan,nan,nan,nan,nan,nan,nan,nan,nan,nan,nan,nan,nan,nan
0.0135822,0.019985,0.02025,0.0271728,0.0543215,0.0485437,0.121509,0.120171,0.119318,0.0145337,0.0147844,0.00859475,0.00826812,0.0117184,0.022984,0.0247156,0.0229158,0.020685,0.0122408,0.0096696,0.0148064,0.026726,0.044317,0.0340978,0.025992,0.0264149,0.0180153,0.0215975,0.0265008,0.0408428,0.0361014,0.0366411,0.026287,0.0455756,0.0457941,0.0743655,0.155557,0.189866,0.184367,0.0639963,0.063822,0.0556783,0.0378943,0.0467305,0.0390017,0.03438,0.0493628,0.0533162,0.053432,0.036235,0.0534175,0.058138,0.0541386,0.0811018,0.0970215,0.132566,0.129093,0.0931043,0.080637,0.0716514,0.0742947,0.0680289,0.0649193,0.0674755,0.0632788,0.0780559,0.0688427,0.0851107,0.082225,0.094084,0.102822,0.0975551,0.0888794,0.0867919,0.088275,0.104967,0.102584,0.102887,0.091945,0.0897138,0.0906497,0.0931556,0.0857628,0.0987086,0.0670773,0.079425,0.0768327,0.0701497,0.0728565,0.0632491,0.0616071,0.0802576,0.0537491,0.0677479,0.0546198,0.0663463,0.0620983,0.0525989,0.0559626,0.0452504,0.0507974,0.0388896,0.0411622,0.0415705,0.0391532,0.0326132,0.0321414,0.036253,0.0490234,0.0896178,0.12384,0.219174,0.224841,0.220433,0.184804,0.138115,0.0751719,0.0266091,0.0197037,0.0297354,0.0282984,0.0287789,0.031279,0.0319213,0.0293449,0.0273812,0.0257585,0.029595,0.0329271,0.0296438,0.0348579,0.037279,0.0359672,0.0380542,0.0358588,0.0397461,0.0393343,0.0436127,0.0334701,0.0360402,0.0375273,0.0323885,0.0421814,0.0539619,0.0476502,0.0416728,0.0416707,0.0339048,0.0347765,0.0400237,0.0411992,0.0513001,0.0478507,0.0587793,0.0499997,0.0583244,0.0461082,0.0395958,0.0467284,0.0416225,0.0497056,0.0478457,0.0407575,0.041683,0.0380391,0.052026,0.0584537,0.0926729,0.118841,0.137515,0.143381,0.157269,0.170078,0.157917,0.166241,0.225576,0.275311,0.0320503,0.0465252,nan,nan,nan,nan,nan,nan,nan,nan,nan,nan,nan,nan,nan,nan,nan,nan,nan,nan,nan,nan,nan,nan,nan,nan,nan,nan,nan,nan,nan,nan,nan,nan,nan,nan,nan,nan,nan,nan,nan,nan,nan,nan,nan,nan,nan,nan,nan,nan,nan,nan,nan,nan,nan,nan,nan,nan,nan,nan,nan,nan,nan,nan,nan,nan,nan,nan,nan,nan,nan,nan,nan,nan,nan,nan,nan,nan,nan,nan,nan,nan,nan,nan,nan,nan,nan,nan,nan,nan,nan,nan,nan,nan,nan,nan,nan,nan,nan,nan,nan,nan,nan,nan,nan,nan,nan,nan,nan,nan,nan,nan,nan,nan,nan,nan,nan,nan,nan,nan,nan,nan,nan
0.0154625,0.0179502,0.021108,0.0276153,0.0236549,0.0155597,0.0120693,0.0104946,0.00874372,0.00911654,0.00812375,0.00877488,0.00900779,0.0161613,0.0359793,0.0244125,0.0241825,0.0260881,0.0145446,0.0108577,0.00546871,0.0284962,0.0287271,0.0348818,0.0261493,0.0251727,0.0330277,0.0203854,0.0252709,0.0254247,0.0251991,0.0292233,0.0260186,0.0398782,0.0417114,0.0543027,0.059225,0.0651149,0.045864,0.048193,0.0543967,0.0395896,0.0336466,0.0522269,0.0497546,0.0487377,0.0513549,0.0648536,0.0586075,0.110045,0.141677,0.133848,0.132035,0.0857879,0.0850467,0.128172,0.132546,0.133215,0.11162,0.0933975,0.0816398,0.0831449,0.0779937,0.0747082,0.0790857,0.129815,0.116704,0.130628,0.0724463,0.0740064,0.0904091,0.0764698,0.082675,0.0760373,0.0759828,0.0712553,0.0951007,0.0703495,0.0662169,0.0813716,0.0620334,0.0632327,0.086444,0.0607425,0.067808,0.0470953,0.0486746,0.0784713,0.0514491,0.0560338,0.0460225,0.0429994,0.0433139,0.0468723,0.0381405,0.0468657,0.0338605,0.0405647,0.0427544,0.041455,0.0389416,0.0401228,0.0269951,0.0297319,0.0267115,0.026747,0.0218244,0.0123342,0.0321532,0.0745996,0.113561,0.188183,0.210338,0.192427,0.170848,0.125845,0.0698646,0.028663,0.0174385,0.0260091,0.0316516,0.0323423,0.0400512,0.0343657,0.0307505,0.0278129,0.0280029,0.0267611,0.0276548,0.0308603,0.0346592,0.0368443,0.0331094,0.0370256,0.0395355,0.0353933,0.0400123,0.0354309,0.0450889,0.0368,0.0347129,0.0300925,0.0351191,0.0406652,0.0335189,0.0340321,0.0297918,0.0363378,0.0377096,0.036115,0.0534682,0.0509159,0.0538774,0.0507131,0.0582138,0.0542145,0.0708818,0.0773728,0.0785578,0.071281,0.0847706,0.09174,0.0929849,0.0724043,0.0862358,0.127601,0.165657,0.175471,0.266012,0.251435,0.270695,0.287143,0.306711,0.359023,0.170116,0.228583,0.229573,0.0376925,0.0532741,nan,nan,nan,nan,nan,nan,nan,nan,nan,nan,nan,nan,nan,nan,nan,nan,nan,nan,nan,nan,nan,nan,nan,nan,nan,nan,nan,nan,nan,nan,nan,nan,nan,nan,nan,nan,nan,nan,nan,nan,nan,nan,nan,nan,nan,nan,nan,nan,nan,nan,nan,nan,nan,nan,nan,nan,nan,nan,nan,nan,nan,nan,nan,nan,nan,nan,nan,nan,nan,nan,nan,nan,nan,nan,nan,nan,nan,nan,nan,nan,nan,nan,nan,nan,nan,nan,nan,nan,nan,nan,nan,nan,nan,nan,nan,nan,nan,nan,nan,nan,nan,nan,nan,nan,nan,nan,nan,nan,nan,nan,nan,nan,nan,nan,nan,nan,nan,nan,nan,nan,nan
0.0166687,0.0188334,0.0175226,0.0250276,0.0210193,0.0170936,0.0141751,0.015716,0.0132345,0.0103355,0.00733377,0.0154772,0.0192458,0.0282442,0.0372361,0.0377041,0.0316533,0.0223842,0.0262497,0.0164288,0.0144306,0.0241927,0.0254003,0.0305556,0.0241534,0.0283285,0.026877,0.0264775,0.0305137,0.0328353,0.0257921,0.0318926,0.0313224,0.0383924,0.0502008,0.0511045,0.118779,0.120398,0.120304,0.156949,0.154571,0.131325,0.0549298,0.0636681,0.055786,0.0589346,0.0653376,0.0562962,0.0542226,0.0991286,0.109489,0.140674,0.0997382,0.0738479,0.0844724,0.0885383,0.128302,0.115146,0.101007,0.105955,0.0950397,0.0927143,0.0741101,0.0636584,0.0625451,0.0810813,0.116485,0.083107,0.067515,0.0628229,0.0543277,0.0826546,0.0796521,0.0864221,0.067958,0.0716636,0.0669515,0.0779638,0.0613333,0.05984,0.0656483,0.0602956,0.0736515,0.0746347,0.0641804,0.048775,0.0613126,0.057307,0.0725348,0.0344459,0.0402872,0.0360716,0.0336901,0.0321181,0.0352651,0.0281103,0.0244563,0.0218039,0.0217867,0.0259201,0.0203295,0.0245503,0.0221968,0.0211766,0.0295761,0.0306198,0.0263576,0.0207674,0.0365624,0.0735163,0.110244,0.181442,0.188668,0.186182,0.178647,0.121438,0.0726824,0.0339627,0.0213504,0.0239296,0.0306035,0.0357743,0.0365114,0.0407408,0.0344261,0.0243885,0.0279329,0.0306165,0.0270938,0.0291607,0.0371112,0.0416872,0.0350369,0.0360358,0.0457742,0.0367433,0.0333849,0.035841,0.0379545,0.048083,0.0388636,0.0375124,0.03566,0.0299186,0.0348845,0.0371962,0.0479049,0.0310173,0.0261559,0.0304479,0.0287159,0.0405909,0.0273563,0.0531241,0.0669801,0.0554205,0.0600921,0.0771798,0.0674772,0.0747012,0.065159,0.0989592,0.0859758,0.102033,0.0843389,0.156747,0.204603,0.205775,0.228084,0.283085,0.232578,0.333584,0.337484,0.350725,0.278137,0.247333,0.361709,0.34481,0.0411238,nan,nan,nan,nan,nan,nan,nan,nan,nan,nan,nan,nan,nan,nan,nan,nan,nan,nan,nan,nan,nan,nan,nan,nan,nan,nan,nan,nan,nan,nan,nan,nan,nan,nan,nan,nan,nan,nan,nan,nan,nan,nan,nan,nan,nan,nan,nan,nan,nan,nan,nan,nan,nan,nan,nan,nan,nan,nan,nan,nan,nan,nan,nan,nan,nan,nan,nan,nan,nan,nan,nan,nan,nan,nan,nan,nan,nan,nan,nan,nan,nan,nan,nan,nan,nan,nan,nan,nan,nan,nan,nan,nan,nan,nan,nan,nan,nan,nan,nan,nan,nan,nan,nan,nan,nan,nan,nan,nan,nan,nan,nan,nan,nan,nan,nan,nan,nan,nan,nan,nan,nan
0.0247316,0.0216982,0.0227731,0.0192331,0.0256156,0.0223359,0.0188559,0.0188018,0.0160192,0.0134177,0.0159357,0.0220693,0.0216355,0.0304256,0.0297852,0.0296113,0.0247156,0.0379424,0.0270279,0.0186017,0.0145082,0.0374424,0.0517421,0.0333776,0.0340217,0.0326425,0.0476985,0.0256738,0.027486,0.0318485,0.0263041,0.0296797,0.0444671,0.0303728,0.0317161,0.0454036,0.103887,0.125531,0.111431,0.146777,0.139871,0.106049,0.112525,0.0741829,0.0697027,0.0692691,0.0497747,0.0541474,0.0576605,0.0797112,0.10136,0.097037,0.0943319,0.0748954,0.080728,0.0965371,0.101568,0.105327,0.0998789,0.106111,0.0981275,0.0841164,0.0729306,0.085967,0.0719741,0.0730523,0.096278,0.0963347,0.0632371,0.0511227,0.051016,0.0645155,0.0825483,0.0617102,0.0656163,0.0662547,0.0561241,0.0678434,0.0620689,0.0382197,0.0324623,0.0366514,0.030233,0.0413663,0.0328825,0.0244947,0.0214593,0.0283826,0.0363256,0.0367024,0.024384,0.021484,0.02799,0.0304507,0.0250546,0.0282428,0.0228618,0.0308475,0.0306891,0.0346029,0.029589,0.028851,0.0273494,0.0278482,0.0266599,0.0346717,0.0300752,0.0235345,0.0337359,0.0623056,0.102677,0.181061,0.190745,0.192523,0.196317,0.120674,0.0763429,0.0404853,0.0211306,0.0250856,0.0382698,0.0379984,0.0356318,0.0368579,0.0294724,0.0361257,0.0350086,0.0299061,0.0325838,0.0310033,0.0376101,0.0351903,0.0415295,0.0348487,0.0354533,0.0470074,0.0390918,0.0383946,0.0384974,0.0385244,0.0448295,0.0523684,0.055099,0.0504833,0.0379023,0.0413596,0.0445861,0.0538721,0.0435309,0.0318651,0.028923,0.0353674,0.0415679,0.0698467,0.0735781,0.0632305,0.0585112,0.0676661,0.0852902,0.0917385,0.0932235,0.0931355,0.0749485,0.106035,0.0909598,0.123271,0.159594,0.205473,0.200394,0.273609,0.223975,0.298854,0.354827,0.386566,0.226235,0.217911,0.246732,0.025737,0.0261157,nan,nan,nan,nan,nan,nan,nan,nan,nan,nan,nan,nan,nan,nan,nan,nan,nan,nan,nan,nan,nan,nan,nan,nan,nan,nan,nan,nan,nan,nan,nan,nan,nan,nan,nan,nan,nan,nan,nan,nan,nan,nan,nan,nan,nan,nan,nan,nan,nan,nan,nan,nan,nan,nan,nan,nan,nan,nan,nan,nan,nan,nan,nan,nan,nan,nan,nan,nan,nan,nan,nan,nan,nan,nan,nan,nan,nan,nan,nan,nan,nan,nan,nan,nan,nan,nan,nan,nan,nan,nan,nan,nan,nan,nan,nan,nan,nan,nan,nan,nan,nan,nan,nan,nan,nan,nan,nan,nan,nan,nan,nan,nan,nan,nan,nan,nan,nan,nan,nan,nan,nan
0.0295467,0.0291212,0.0295787,0.0183223,0.0170688,0.02051,0.0173762,0.0234551,0.0148917,0.0152225,0.0170638,0.0562072,0.0519613,0.0535396,0.0298904,0.0294961,0.0230569,0.0371207,0.0353626,0.0269743,0.0161552,0.0389184,0.0700457,0.0883688,0.0883435,0.0483075,0.0372701,0.0288699,0.0311785,0.032447,0.0332815,0.0279088,0.0318882,0.0383635,0.0362511,0.0266179,0.0916422,0.118717,0.101568,0.140603,0.143443,0.158902,0.144245,0.0914839,0.0692648,0.0709795,0.0502902,0.0635541,0.0510717,0.0923875,0.106114,0.0994444,0.100772,0.0829612,0.0759346,0.0789175,0.101184,0.100654,0.107785,0.0860897,0.0924028,0.0744204,0.0757229,0.0594622,0.0784862,0.0708717,0.0857892,0.0832873,0.054001,0.0433282,0.0372595,0.0374361,0.0357777,0.0361598,0.0322424,0.0342338,0.0284173,0.0236923,0.028408,0.0281147,0.0325758,0.023641,0.0351837,0.0346632,0.04913,0.0243319,0.0237849,0.0249985,0.0287934,0.0218779,0.022496,0.0297915,0.0292504,0.0324132,0.0255584,0.024507,0.0322275,0.0277886,0.0333575,0.0358034,0.0373164,0.0293141,0.0288097,0.0281218,0.0305664,0.0283037,0.0281835,0.0262381,0.032485,0.0628534,0.102095,0.184025,0.191097,0.201979,0.205573,0.127013,0.082228,0.0458322,0.024809,0.03111,0.0351445,0.0396768,0.0346792,0.0330445,0.036701,0.0338637,0.0345343,0.031219,0.029308,0.0309382,0.0317182,0.0323679,0.0296315,0.032449,0.0349302,0.034161,0.0385717,0.0402255,0.0379213,0.040605,0.0422753,0.0556102,0.0794982,0.0533678,0.0515855,0.0409454,0.0681818,0.0738287,0.0528869,0.0585718,0.0471629,0.0783701,0.0875137,0.0687642,0.0747383,0.0639656,0.0706664,0.0926512,0.0879349,0.103498,0.102614,0.0656524,0.071433,0.0830545,0.116278,0.143598,0.1924,0.221413,0.214439,0.290099,0.316741,0.297592,0.222997,0.204872,0.253701,0.25476,0.294735,0.301238,0.0704796,nan,nan,nan,nan,nan,nan,nan,nan,nan,nan,nan,nan,nan,nan,nan,nan,nan,nan,nan,nan,nan,nan,nan,nan,nan,nan,nan,nan,nan,nan,nan,nan,nan,nan,nan,nan,nan,nan,nan,nan,nan,nan,nan,nan,nan,nan,nan,nan,nan,nan,nan,nan,nan,nan,nan,nan,nan,nan,nan,nan,nan,nan,nan,nan,nan,nan,nan,nan,nan,nan,nan,nan,nan,nan,nan,nan,nan,nan,nan,nan,nan,nan,nan,nan,nan,nan,nan,nan,nan,nan,nan,nan,nan,nan,nan,nan,nan,nan,nan,nan,nan,nan,nan,nan,nan,nan,nan,nan,nan,nan,nan,nan,nan,nan,nan,nan,nan,nan,nan,nan,nan
0.0302555,0.0336592,0.0320263,0.0213535,0.0208831,0.0232506,0.063913,0.0587729,0.0555241,0.0189363,0.0517648,0.0571563,0.0580341,0.0747261,0.0620371,0.0233779,0.0179224,0.0346917,0.0255872,0.0243554,0.0201136,0.0385939,0.100607,0.100731,0.100474,0.0367428,0.0351052,0.037992,0.0313646,0.0323684,0.0446338,0.034486,0.037606,0.0369208,0.0356039,0.044479,0.0411568,0.0267301,0.0347759,0.0447154,0.143765,0.168496,0.161031,0.134676,0.0766886,0.062006,0.0492047,0.0548114,0.05511,0.0599865,0.0571409,0.0646266,0.0715971,0.0673588,0.0758458,0.0650123,0.0628201,0.0639442,0.0736966,0.0602441,0.0465682,0.0338522,0.0331732,0.0309329,0.0302029,0.025417,0.0338508,0.0304179,0.032037,0.0384822,0.0337597,0.0347926,0.0354661,0.0463337,0.0337819,0.0304262,0.0308085,0.0292061,0.037245,0.0240542,0.0260866,0.0332461,0.0401603,0.0504353,0.0520068,0.0240006,0.0273839,0.0271616,0.0317246,0.0297174,0.0243746,0.0231407,0.0285251,0.023236,0.0301449,0.0229097,0.0264414,0.0312399,0.0265251,0.0292962,0.0297549,0.0294074,0.0261585,0.0262261,0.0337266,0.029664,0.027949,0.0236179,0.0252142,0.0621659,0.100097,0.188077,0.188426,0.218859,0.202419,0.123987,0.0729411,0.0482356,0.0336482,0.0389655,0.0333554,0.0341701,0.0292187,0.0353149,0.0401362,0.0385361,0.0319415,0.0326888,0.0373562,0.047651,0.0464837,0.0446579,0.0396718,0.0558168,0.0456263,0.0507632,0.0410145,0.0469264,0.0428056,0.0415186,0.0452534,0.0661444,0.0826066,0.0591086,0.0383908,0.0540984,0.0532045,0.0741642,0.0650928,0.0611805,0.0627925,0.0574682,0.0853285,0.0592001,0.0604756,0.0703015,0.0639656,0.0888237,0.0759236,0.0987849,0.080101,0.0583818,0.0617135,0.0889677,0.120253,0.106313,0.162527,0.255009,0.243597,0.250713,0.316237,0.335038,0.215869,0.238598,0.23469,0.334255,0.31513,0.414802,0.477868,nan,nan,nan,nan,nan,nan,nan,nan,nan,nan,nan,nan,nan,nan,nan,nan,nan,nan,nan,nan,nan,nan,nan,nan,nan,nan,nan,nan,nan,nan,nan,nan,nan,nan,nan,nan,nan,nan,nan,nan,nan,nan,nan,nan,nan,nan,nan,nan,nan,nan,nan,nan,nan,nan,nan,nan,nan,nan,nan,nan,nan,nan,nan,nan,nan,nan,nan,nan,nan,nan,nan,nan,nan,nan,nan,nan,nan,nan,nan,nan,nan,nan,nan,nan,nan,nan,nan,nan,nan,nan,nan,nan,nan,nan,nan,nan,nan,nan,nan,nan,nan,nan,nan,nan,nan,nan,nan,nan,nan,nan,nan,nan,nan,nan,nan,nan,nan,nan,nan,nan,nan
0.0255455,0.0338998,0.0329434,0.0300319,0.0233232,0.0245807,0.0607094,0.0720626,0.0651418,0.0475843,0.054301,0.0534125,0.0666088,0.0733998,0.0545225,0.0169569,0.0178057,0.0254614,0.0272982,0.0248844,0.0198943,0.0206453,0.105673,0.0957319,0.0940631,0.0322536,0.0431612,0.0461681,0.0444059,0.042319,0.0465494,0.040509,0.041956,0.0411274,0.0393381,0.0456028,0.0419423,0.0313645,0.0503691,0.0477282,0.0735681,0.10641,0.10454,0.0801006,0.0902657,0.0838323,0.0747143,0.0743376,0.0708293,0.0414619,0.0623031,0.048016,0.0827265,0.0702644,0.0840127,0.0617553,0.0668297,0.0709616,0.0712531,0.0619491,0.0561968,0.0377812,0.0309821,0.0258728,0.0309195,0.0407061,0.0293544,0.0304474,0.0343535,0.0330428,0.0341915,0.0372363,0.0455092,0.0468955,0.0352276,0.0280672,0.0322939,0.0390601,0.0336614,0.0293857,0.0241743,0.0264659,0.0319485,0.0467957,0.0398553,0.0300058,0.0253174,0.0252915,0.0315254,0.0239175,0.0342836,0.0201408,0.0249202,0.0224164,0.0240715,0.0266614,0.0332331,0.0287615,0.0296043,0.0260938,0.028616,0.029329,0.0300043,0.0274123,0.0324279,0.0256015,0.0231829,0.022329,0.0306316,0.0636151,0.106058,0.182187,0.202979,0.203947,0.210495,0.12948,0.0718461,0.0435868,0.0344485,0.0464763,0.0421698,0.0505232,0.0475641,0.0352596,0.0450551,0.0376128,0.0396357,0.0474532,0.0566027,0.0578738,0.0533921,0.0590274,0.0655148,0.0618945,0.059658,0.0624734,0.0565476,0.0556272,0.0647737,0.0636707,0.0521835,0.0551407,0.0598925,0.0536474,0.0529842,0.0455542,0.0485519,0.0479764,0.052985,0.0553797,0.0517369,0.059986,0.0834654,0.0658277,0.0576821,0.0696492,0.070587,0.0802876,0.0763788,0.0694227,0.0643223,0.0624001,0.0613524,0.0928791,0.136167,0.135937,0.182337,0.202321,0.398558,0.395802,0.214492,0.238419,0.210685,0.249562,0.311705,0.325889,0.396444,0.538773,1,nan,nan,nan,nan,nan,nan,nan,nan,nan,nan,nan,nan,nan,nan,nan,nan,nan,nan,nan,nan,nan,nan,nan,nan,nan,nan,nan,nan,nan,nan,nan,nan,nan,nan,nan,nan,nan,nan,nan,nan,nan,nan,nan,nan,nan,nan,nan,nan,nan,nan,nan,nan,nan,nan,nan,nan,nan,nan,nan,nan,nan,nan,nan,nan,nan,nan,nan,nan,nan,nan,nan,nan,nan,nan,nan,nan,nan,nan,nan,nan,nan,nan,nan,nan,nan,nan,nan,nan,nan,nan,nan,nan,nan,nan,nan,nan,nan,nan,nan,nan,nan,nan,nan,nan,nan,nan,nan,nan,nan,nan,nan,nan,nan,nan,nan,nan,nan,nan,nan,nan,nan
0.0196301,0.0297739,0.0279237,0.0347803,0.035866,0.0291068,0.0607487,0.0745534,0.0486374,0.0607857,0.057364,0.0495714,0.0638295,0.0544983,0.051882,0.0148755,0.0159711,0.0216019,0.0336046,0.0311063,0.0246499,0.0302876,0.0395658,0.0427425,0.0340081,0.030411,0.031907,0.0223576,0.0212839,0.0443451,0.0450896,0.0421074,0.0444618,0.050801,0.0420211,0.0493788,0.0402074,0.0324838,0.0576272,0.0515642,0.0616838,0.110828,0.110104,0.076781,0.124766,0.0850792,0.0862763,0.0640302,0.110533,0.110155,0.0976362,0.0678368,0.0691962,0.0886634,0.0855097,0.0743997,0.0601258,0.0703184,0.0604589,0.0614374,0.0526595,0.0464312,0.0383531,0.0372674,0.0353897,0.0295356,0.0232241,0.0293552,0.0306159,0.0338727,0.027137,0.0366911,0.0394072,0.0404532,0.0253415,0.0318581,0.0346062,0.0318789,0.0355285,0.0189782,0.0261097,0.0335058,0.0239693,0.0310816,0.0437324,0.0426298,0.0181605,0.03002,0.0316534,0.0352383,0.0320929,0.024887,0.0229087,0.0210208,0.0305693,0.0330367,0.0327249,0.0332801,0.0267549,0.0299457,0.023296,0.0269753,0.0240908,0.027165,0.0222201,0.019778,0.0213369,0.0199468,0.0266461,0.060946,0.106749,0.200203,0.197435,0.191189,0.204368,0.123865,0.0839315,0.0402874,0.042378,0.0404625,0.0392545,0.0580168,0.0404279,0.0444591,0.043312,0.0419392,0.0486166,0.0408591,0.0573695,0.0537405,0.0559614,0.0509803,0.0664804,0.0569303,0.0607201,0.0711774,0.0660384,0.0537364,0.0673619,0.0699854,0.0636641,0.0690607,0.0725411,0.0798907,0.0945091,0.0740739,0.0738821,0.076709,0.0703077,0.0883019,0.0607331,0.0644208,0.0587995,0.056514,0.0639705,0.0621706,0.0682706,0.0789712,0.082408,0.0835276,0.083175,0.0762883,0.0903595,0.0768155,0.100234,0.125621,0.263177,0.423318,0.45483,0.549181,0.480434,0.44808,0.450812,0.28917,0.346481,0.359862,0.415268,1,1,nan,nan,nan,nan,nan,nan,nan,nan,nan,nan,nan,nan,nan,nan,nan,nan,nan,nan,nan,nan,nan,nan,nan,nan,nan,nan,nan,nan,nan,nan,nan,nan,nan,nan,nan,nan,nan,nan,nan,nan,nan,nan,nan,nan,nan,nan,nan,nan,nan,nan,nan,nan,nan,nan,nan,nan,nan,nan,nan,nan,nan,nan,nan,nan,nan,nan,nan,nan,nan,nan,nan,nan,nan,nan,nan,nan,nan,nan,nan,nan,nan,nan,nan,nan,nan,nan,nan,nan,nan,nan,nan,nan,nan,nan,nan,nan,nan,nan,nan,nan,nan,nan,nan,nan,nan,nan,nan,nan,nan,nan,nan,nan,nan,nan,nan,nan,nan,nan,nan,nan,nan
0.0140769,0.0216157,0.029985,0.0321579,0.0347755,0.0380401,0.0397989,0.0466254,0.06315,0.0595469,0.0595724,0.0383257,0.0392752,0.0216968,0.0197654,0.0214624,0.019908,0.0208431,0.0437632,0.043351,0.0394329,0.0417914,0.0463524,0.0426447,0.0334349,0.0335003,0.0322853,0.0289591,0.047438,0.0470927,0.0484818,0.029428,0.048992,0.0474675,0.04379,0.0492834,0.0492846,0.0405985,0.0492461,0.0555984,0.181657,0.176597,0.128843,0.0877543,0.0942213,0.123948,0.0873834,0.0560522,0.0896038,0.108404,0.10508,0.0686333,0.078449,0.0770352,0.0802245,0.0671262,0.0688046,0.0528566,0.0536106,0.0401322,0.0687238,0.0604633,0.0506383,0.0228815,0.0280812,0.0240031,0.0226703,0.0242338,0.019442,0.0235445,0.0303292,0.0319571,0.0354584,0.035421,0.0260593,0.0182982,0.0173971,0.0226401,0.0209436,0.0291546,0.0362659,0.0254109,0.0201469,0.0260753,0.0292464,0.0391016,0.0218241,0.0221533,0.0289348,0.0321921,0.0320076,0.0268564,0.0240936,0.0240094,0.0289149,0.0295692,0.0360746,0.0246294,0.0230726,0.022665,0.0283399,0.0231454,0.0202348,0.0196536,0.0189528,0.019388,0.0187738,0.0192083,0.0231061,0.0624138,0.102146,0.189825,0.207045,0.208433,0.194366,0.128845,0.0763053,0.0447445,0.0397613,0.0410387,0.0410394,0.0547927,0.0455826,0.037188,0.0330206,0.0433701,0.0376203,0.047099,0.0485982,0.0654836,0.072694,0.0694177,0.0717478,0.0642002,0.0588973,0.0572224,0.0697893,0.0586106,0.0597161,0.0689733,0.0818707,0.0649301,0.0721205,0.0634033,0.0912287,0.0646572,0.0734874,0.0449369,0.0725482,0.0804744,0.0556384,0.0614428,0.0461206,0.0720334,0.0652815,0.0677421,0.0605682,0.0665714,0.0845139,0.105369,0.107277,0.11415,0.122826,0.14592,0.211258,0.256733,0.388776,0.349317,0.445923,0.543305,0.635252,0.698602,1,1,1,0.625165,0.638918,1,1,nan,nan,nan,nan,nan,nan,nan,nan,nan,nan,nan,nan,nan,nan,nan,nan,nan,nan,nan,nan,nan,nan,nan,nan,nan,nan,nan,nan,nan,nan,nan,nan,nan,nan,nan,nan,nan,nan,nan,nan,nan,nan,nan,nan,nan,nan,nan,nan,nan,nan,nan,nan,nan,nan,nan,nan,nan,nan,nan,nan,nan,nan,nan,nan,nan,nan,nan,nan,nan,nan,nan,nan,nan,nan,nan,nan,nan,nan,nan,nan,nan,nan,nan,nan,nan,nan,nan,nan,nan,nan,nan,nan,nan,nan,nan,nan,nan,nan,nan,nan,nan,nan,nan,nan,nan,nan,nan,nan,nan,nan,nan,nan,nan,nan,nan,nan,nan,nan,nan,nan,nan
0.0104756,0.0100268,0.0139365,0.0324055,0.0346726,0.0364305,0.0316583,0.029817,0.0427854,0.0477962,0.0415903,0.0467065,0.0382774,0.0369256,0.027426,0.0304661,0.0279439,0.0303648,0.0488862,0.0463623,0.046127,0.0424103,0.0510391,0.0969561,0.0839685,0.0872214,0.0826748,0.0720687,0.0542125,0.0429296,0.0572438,0.0235969,0.0305562,0.0456784,0.0507566,0.0492021,0.0575416,0.0541181,0.0578052,0.0697176,0.174817,0.18864,0.130754,0.0863358,0.11226,0.106806,0.0858138,0.0580745,0.112567,0.113353,0.077925,0.0662212,0.0534343,0.0831444,0.0473255,0.0521234,0.0503224,0.0521661,0.0452092,0.0366627,0.0552924,0.0409049,0.048959,0.016363,0.0267163,0.026044,0.019453,0.0229095,0.0184754,0.0134175,0.0147156,0.0146709,0.0279222,0.0272612,0.0205794,0.015876,0.0258203,0.0185309,0.0246741,0.0352477,0.0303321,0.0262296,0.0265503,0.0210991,0.0204418,0.0229788,0.0239475,0.0187573,0.0306569,0.0300312,0.0265832,0.0330011,0.0199177,0.0233157,0.035391,0.0412677,0.0423678,0.0216098,0.027516,0.0278007,0.034488,0.029039,0.0213516,0.0177567,0.0164727,0.0154299,0.0156231,0.0146934,0.0269111,0.0656672,0.107055,0.196016,0.186646,0.186486,0.194381,0.120238,0.0781558,0.0350238,0.036445,0.0423845,0.0378397,0.0485005,0.0499264,0.0463055,0.0593729,0.0592404,0.0656535,0.0577557,0.0585911,0.0626163,0.0746652,0.0799937,0.0752434,0.0808428,0.0705343,0.0556038,0.0490161,0.0639325,0.0628244,0.0706606,0.0886514,0.060657,0.0498397,0.0493223,0.060337,0.0470905,0.0611423,0.0495508,0.0690009,0.0855021,0.0647842,0.0541417,0.0697162,0.0769483,0.0670021,0.0644315,0.0511222,0.0584635,0.0885601,0.151335,0.191262,0.209005,0.225428,0.162972,0.327535,0.34586,0.419181,0.418376,0.477575,0.5628,0.683478,1,0.679979,1,1,1,1,1,1,nan,nan,nan,nan,nan,nan,nan,nan,nan,nan,nan,nan,nan,nan,nan,nan,nan,nan,nan,nan,nan,nan,nan,nan,nan,nan,nan,nan,nan,nan,nan,nan,nan,nan,nan,nan,nan,nan,nan,nan,nan,nan,nan,nan,nan,nan,nan,nan,nan,nan,nan,nan,nan,nan,nan,nan,nan,nan,nan,nan,nan,nan,nan,nan,nan,nan,nan,nan,nan,nan,nan,nan,nan,nan,nan,nan,nan,nan,nan,nan,nan,nan,nan,nan,nan,nan,nan,nan,nan,nan,nan,nan,nan,nan,nan,nan,nan,nan,nan,nan,nan,nan,nan,nan,nan,nan,nan,nan,nan,nan,nan,nan,nan,nan,nan,nan,nan,nan,nan,nan,nan
0.00565238,0.00708055,0.00713797,0.00908708,0.0153842,0.017175,0.0294466,0.0369001,0.0481341,0.0421017,0.0395355,0.0481805,0.0405985,0.0519322,0.0378105,0.0368428,0.0335612,0.0439034,0.0488151,0.0469498,0.0449781,0.0529534,0.0691907,0.102516,0.103177,0.0798656,0.0799755,0.0732289,0.0358795,0.0530773,0.0447186,0.0241268,0.0227596,0.0347636,0.0489155,0.0588634,0.0533305,0.0595007,0.0569042,0.0890582,0.163836,0.190486,0.146648,0.13994,0.109135,0.0794832,0.0925699,0.0823026,0.0598932,0.0598161,0.0495621,0.0487819,0.0535824,0.0482122,0.0531256,0.0553552,0.0548776,0.0510579,0.0454106,0.0344526,0.0271029,0.0241866,0.0162328,0.0117448,0.0255983,0.020818,0.0242318,0.0219093,0.0364085,0.0275707,0.0175632,0.0145656,0.0238859,0.0160308,0.0162857,0.0165884,0.0112416,0.0107498,0.0223214,0.0367336,0.0393174,0.0391537,0.037603,0.0203556,0.0185474,0.0225153,0.0228586,0.0225812,0.0238518,0.0310523,0.0330357,0.0230756,0.0228962,0.0247931,0.036425,0.0323405,0.0331173,0.0282892,0.0251419,0.0299134,0.033019,0.0250328,0.0239712,0.0195509,0.0199439,0.0224711,0.0158979,0.0185686,0.028187,0.0605402,0.100097,0.16664,0.188621,0.194247,0.171654,0.125731,0.0713719,0.0393171,0.0394449,0.0428809,0.0333169,0.0394694,0.0612431,0.0585397,0.0550409,0.0682238,0.0724745,0.0775388,0.0759022,0.0750894,0.0813337,0.0761618,0.101791,0.1086,0.103465,0.0810394,0.0761841,0.0613827,0.0718255,0.0827235,0.0743511,0.058635,0.0556202,0.0696809,0.0569821,0.0619953,0.0560846,0.0460694,0.0487884,0.0624208,0.0478691,0.0479543,0.0563768,0.0548947,0.0544634,0.0513091,0.0665939,0.10045,0.188814,0.249506,0.255805,0.259726,0.279796,0.298319,0.334654,0.444842,0.490055,1,1,1,1,1,0.830651,0.71196,0.778718,1,0.651126,1,1,nan,nan,nan,nan,nan,nan,nan,nan,nan,nan,nan,nan,nan,nan,nan,nan,nan,nan,nan,nan,nan,nan,nan,nan,nan,nan,nan,nan,nan,nan,nan,nan,nan,nan,nan,nan,nan,nan,nan,nan,nan,nan,nan,nan,nan,nan,nan,nan,nan,nan,nan,nan,nan,nan,nan,nan,nan,nan,nan,nan,nan,nan,nan,nan,nan,nan,nan,nan,nan,nan,nan,nan,nan,nan,nan,nan,nan,nan,nan,nan,nan,nan,nan,nan,nan,nan,nan,nan,nan,nan,nan,nan,nan,nan,nan,nan,nan,nan,nan,nan,nan,nan,nan,nan,nan,nan,nan,nan,nan,nan,nan,nan,nan,nan,nan,nan,nan,nan,nan,nan,nan
0.00362794,0.00494148,0.00593284,0.00961596,0.0199456,0.024522,0.0413751,0.0892851,0.0829196,0.0959429,0.091853,0.0931097,0.0881785,0.0697445,0.0550361,0.051928,0.0583011,0.0537769,0.0469959,0.048644,0.0488567,0.0665362,0.067484,0.0699152,0.0766649,0.0648173,0.0564156,0.0632419,0.0405507,0.0374654,0.0466112,0.0189678,0.0187744,0.0276529,0.0351933,0.0494849,0.057618,0.0505438,0.0888501,0.0892483,0.0966455,0.114147,0.136913,0.123361,0.0814029,0.0984385,0.0858436,0.073059,0.0568531,0.0484929,0.0444232,0.0515332,0.0855364,0.0591268,0.0671562,0.059847,0.056556,0.0595239,0.0465755,0.0349535,0.0218857,0.0275189,0.0221223,0.0183276,0.0283538,0.0325137,0.0237714,0.0288193,0.03669,0.0265027,0.0183218,0.0206694,0.0176896,0.0152282,0.0192996,0.0106999,0.0111353,0.014442,0.0151764,0.0264997,0.035287,0.0297863,0.0331012,0.0189191,0.0209523,0.0220456,0.0218946,0.0229183,0.025256,0.032131,0.025263,0.0272115,0.0272525,0.0242708,0.0261825,0.0257018,0.0300155,0.0291996,0.0301628,0.0253505,0.0219788,0.0190792,0.0200019,0.0171691,0.0230544,0.0162378,0.0126017,0.0158787,0.0296725,0.0589088,0.10291,0.170091,0.2022,0.201687,0.18716,0.122745,0.0756196,0.0435924,0.0264923,0.0416403,0.0386926,0.0535931,0.0636526,0.0521851,0.0565112,0.0605897,0.070292,0.0929849,0.0942518,0.118714,0.120452,0.11034,0.114376,0.123403,0.103957,0.101864,0.14113,0.117509,0.138779,0.0983064,0.084727,0.0737718,0.0726196,0.0752458,0.0716342,0.0647909,0.0740176,0.0529544,0.0595099,0.0671386,0.0617312,0.0739298,0.0705889,0.0651915,0.055097,0.0732908,0.110799,0.16575,0.269052,0.256838,0.27732,0.283107,0.322623,0.441758,0.452465,0.498176,0.506244,1,1,1,1,1,1,0.727641,1,1,1,1,1,nan,nan,nan,nan,nan,nan,nan,nan,nan,nan,nan,nan,nan,nan,nan,nan,nan,nan,nan,nan,nan,nan,nan,nan,nan,nan,nan,nan,nan,nan,nan,nan,nan,nan,nan,nan,nan,nan,nan,nan,nan,nan,nan,nan,nan,nan,nan,nan,nan,nan,nan,nan,nan,nan,nan,nan,nan,nan,nan,nan,nan,nan,nan,nan,nan,nan,nan,nan,nan,nan,nan,nan,nan,nan,nan,nan,nan,nan,nan,nan,nan,nan,nan,nan,nan,nan,nan,nan,nan,nan,nan,nan,nan,nan,nan,nan,nan,nan,nan,nan,nan,nan,nan,nan,nan,nan,nan,nan,nan,nan,nan,nan,nan,nan,nan,nan,nan,nan,nan,nan,nan
0.00388475,0.00884511,0.0104825,0.019069,0.0310499,0.030466,0.0440774,0.0757997,0.0944413,0.118322,0.107368,0.0991347,0.0994153,0.070798,0.101602,0.0794465,0.0890385,0.0559602,0.0500688,0.0423924,0.0377789,0.038205,0.0430906,0.0397677,0.0407215,0.0326711,0.0615511,0.0535493,0.0417945,0.0325977,0.0252122,0.0323326,0.024779,0.0296418,0.0352561,0.0374212,0.0469822,0.0686701,0.0665699,0.0670511,0.0965813,0.112875,0.112899,0.0900708,0.0619141,0.0822952,0.16739,0.140916,0.162883,0.0583509,0.0470356,0.0467633,0.0776247,0.0883788,0.0518183,0.0548636,0.0620401,0.0626002,0.0474283,0.0287723,0.027038,0.0374393,0.0302323,0.0455831,0.0227452,0.0349134,0.0373882,0.0228622,0.0302977,0.0247808,0.0244049,0.0141824,0.0190802,0.0201967,0.0146098,0.0100057,0.0158547,0.0130674,0.0194114,0.0254971,0.0261038,0.0245843,0.0237602,0.0290718,0.0198097,0.0219856,0.0251291,0.0240103,0.021311,0.0336409,0.0336154,0.0247517,0.0285583,0.0276657,0.0216246,0.023993,0.0267345,0.0302981,0.0234807,0.0210349,0.0208277,0.0197383,0.0245641,0.0152196,0.0183752,0.0180202,0.0135426,0.0173268,0.0234486,0.0572077,0.100334,0.157191,0.211569,0.211504,0.179562,0.128387,0.0779883,0.0366633,0.027375,0.0235466,0.0310162,0.0358646,0.0455904,0.050483,0.0589647,0.0685616,0.0922526,0.0997257,0.10622,0.125392,0.126944,0.142632,0.12671,0.154724,0.140798,0.134976,0.125643,0.155873,0.119694,0.127624,0.136538,0.126181,0.119028,0.100807,0.105691,0.0856349,0.0767057,0.0700071,0.0692865,0.0685855,0.0627509,0.0704451,0.0903732,0.0790336,0.114946,0.0966837,0.141643,0.196729,0.287271,0.313695,0.43358,0.62505,0.580185,0.574411,0.430045,0.510728,0.549651,1,1,1,1,1,1,0.777765,1,1,1,1,1,nan,nan,nan,nan,nan,nan,nan,nan,nan,nan,nan,nan,nan,nan,nan,nan,nan,nan,nan,nan,nan,nan,nan,nan,nan,nan,nan,nan,nan,nan,nan,nan,nan,nan,nan,nan,nan,nan,nan,nan,nan,nan,nan,nan,nan,nan,nan,nan,nan,nan,nan,nan,nan,nan,nan,nan,nan,nan,nan,nan,nan,nan,nan,nan,nan,nan,nan,nan,nan,nan,nan,nan,nan,nan,nan,nan,nan,nan,nan,nan,nan,nan,nan,nan,nan,nan,nan,nan,nan,nan,nan,nan,nan,nan,nan,nan,nan,nan,nan,nan,nan,nan,nan,nan,nan,nan,nan,nan,nan,nan,nan,nan,nan,nan,nan,nan,nan,nan,nan,nan,nan
0.0104764,0.013081,0.0121741,0.0188839,0.0308256,0.0398369,0.0384147,0.0715119,0.0831592,0.0936361,0.141906,0.11049,0.108791,0.103946,0.105163,0.0975314,0.0698437,0.0552943,0.0415958,0.0318497,0.0396599,0.0329526,0.0427683,0.0321376,0.0470785,0.0455288,0.0486477,0.0664805,0.0510374,0.0485101,0.0398452,0.0459455,0.0443206,0.0398705,0.0545339,0.0347427,0.0394335,0.0550467,0.0568455,0.0602182,0.212578,0.195509,0.215283,0.0859673,0.0577859,0.0710855,0.171066,0.175913,0.156554,0.0877994,0.059769,0.0684008,0.0698274,0.0604994,0.0742792,0.0669845,0.0607643,0.0855008,0.0566393,0.0445665,0.0291485,0.0450209,0.0524926,0.0272513,0.0229734,0.0280529,0.0261426,0.0305159,0.0320945,0.0304395,0.017635,0.0198112,0.0226742,0.0185901,0.0185435,0.0144471,0.0169707,0.0208628,0.0273889,0.0272449,0.0292757,0.0290097,0.0291282,0.0246515,0.0214544,0.0285674,0.0304914,0.0225836,0.0264355,0.0239114,0.0333586,0.0248904,0.0225233,0.0278441,0.0246201,0.025579,0.0268678,0.0345884,0.0240485,0.0190373,0.0258202,0.0241936,0.0208374,0.0185211,0.0171263,0.0220283,0.0138435,0.00787747,0.0156327,0.0529483,0.100049,0.153831,0.204459,0.208352,0.194953,0.133757,0.0865404,0.0387478,0.0299954,0.0363942,0.0384149,0.0395367,0.0500589,0.0628963,0.0602022,0.0707323,0.07332,0.0950961,0.101664,0.10982,0.115971,0.129733,0.149403,0.152478,0.120476,0.120864,0.132776,0.13465,0.140526,0.137546,0.148683,0.147843,0.13889,0.13734,0.147588,0.149622,0.195182,0.168542,0.117311,0.101136,0.116042,0.0994794,0.107187,0.0968427,0.0936452,0.141303,0.186353,0.285697,0.390972,0.569019,0.643883,0.521768,1,0.636759,1,1,1,0.780181,1,1,1,1,1,1,1,1,0.428573,1,0.010246,nan,nan,nan,nan,nan,nan,nan,nan,nan,nan,nan,nan,nan,nan,nan,nan,nan,nan,nan,nan,nan,nan,nan,nan,nan,nan,nan,nan,nan,nan,nan,nan,nan,nan,nan,nan,nan,nan,nan,nan,nan,nan,nan,nan,nan,nan,nan,nan,nan,nan,nan,nan,nan,nan,nan,nan,nan,nan,nan,nan,nan,nan,nan,nan,nan,nan,nan,nan,nan,nan,nan,nan,nan,nan,nan,nan,nan,nan,nan,nan,nan,nan,nan,nan,nan,nan,nan,nan,nan,nan,nan,nan,nan,nan,nan,nan,nan,nan,nan,nan,nan,nan,nan,nan,nan,nan,nan,nan,nan,nan,nan,nan,nan,nan,nan,nan,nan,nan,nan,nan,nan
0.0112235,0.0132753,0.0129196,0.0325048,0.0264311,0.031409,0.043619,0.0531488,0.0890466,0.129688,0.141872,0.101683,0.119257,0.108953,0.0852292,0.107195,0.0678477,0.0667037,0.0410242,0.0259954,0.0380777,0.0407148,0.0319339,0.0430941,0.0343566,0.0330302,0.0479866,0.0405294,0.0496874,0.053182,0.0538647,0.0494613,0.0468551,0.05109,0.0486461,0.0442329,0.0409318,0.0451001,0.060564,0.0759549,0.18441,0.214072,0.197563,0.0729272,0.0532677,0.080723,0.141842,0.133288,0.11344,0.0692085,0.119726,0.137672,0.147113,0.0727875,0.0505281,0.0613956,0.0851104,0.0641005,0.0647171,0.0318232,0.0432811,0.0367077,0.0349158,0.0480163,0.03379,0.0183479,0.0237598,0.0182028,0.0268642,0.022784,0.0238705,0.0236979,0.0204344,0.0180275,0.0159644,0.0180425,0.0152426,0.0193824,0.028135,0.0285455,0.0288402,0.0306691,0.0363741,0.0250007,0.0185846,0.0217994,0.0308017,0.0287139,0.0193685,0.0222223,0.0294182,0.0286714,0.0202537,0.0241765,0.020915,0.0281739,0.0344289,0.0241908,0.0189008,0.0220378,0.0272441,0.0221901,0.0315741,0.0176944,0.0227875,0.0169414,0.0185344,0.021316,0.0157388,0.0513609,0.0961918,0.160659,0.210626,0.221857,0.202282,0.138868,0.113241,0.0500389,0.0484511,0.0544279,0.0546275,0.0594051,0.0655327,0.071354,0.0852488,0.0929027,0.0996795,0.10314,0.07803,0.0732409,0.0868019,0.0860446,0.0809729,0.103568,0.107822,0.124192,0.128344,0.116829,0.150192,0.145863,0.15737,0.156976,0.165944,0.189242,0.137812,0.216218,0.225006,0.18622,0.139125,0.143606,0.118047,0.145899,0.134155,0.113176,0.142711,0.195054,0.272411,0.395035,0.430542,0.785912,1,1,1,1,1,1,1,0.798052,0.83236,1,1,1,1,1,1,1,0.364963,0.00502167,nan,nan,nan,nan,nan,nan,nan,nan,nan,nan,nan,nan,nan,nan,nan,nan,nan,nan,nan,nan,nan,nan,nan,nan,nan,nan,nan,nan,nan,nan,nan,nan,nan,nan,nan,nan,nan,nan,nan,nan,nan,nan,nan,nan,nan,nan,nan,nan,nan,nan,nan,nan,nan,nan,nan,nan,nan,nan,nan,nan,nan,nan,nan,nan,nan,nan,nan,nan,nan,nan,nan,nan,nan,nan,nan,nan,nan,nan,nan,nan,nan,nan,nan,nan,nan,nan,nan,nan,nan,nan,nan,nan,nan,nan,nan,nan,nan,nan,nan,nan,nan,nan,nan,nan,nan,nan,nan,nan,nan,nan,nan,nan,nan,nan,nan,nan,nan,nan,nan,nan,nan,nan
0.0222628,0.0261781,0.0242663,0.0334839,0.0336512,0.0294411,0.0459284,0.0532649,0.0614043,0.141094,0.125099,0.139601,0.099721,0.11515,0.148375,0.121496,0.0918965,0.0607297,0.047678,0.0386515,0.0366278,0.0314409,0.0394345,0.0366228,0.0369945,0.0504365,0.116457,0.119473,0.104125,0.0645945,0.0771608,0.0640346,0.0348035,0.0361087,0.0453434,0.046597,0.0412774,0.0501292,0.0505576,0.0742674,0.179149,0.154502,0.184641,0.0643775,0.0635616,0.149036,0.153397,0.156938,0.0787371,0.0819058,0.151059,0.139109,0.117108,0.0465672,0.0566729,0.0538194,0.0671419,0.0465871,0.0378214,0.0429108,0.0376273,0.0286944,0.0188616,0.0282034,0.0339777,0.0237598,0.0191431,0.019664,0.0153317,0.0190932,0.0320149,0.0223984,0.0181827,0.0187862,0.018021,0.0159701,0.0172412,0.017333,0.0201184,0.0271602,0.0225104,0.035154,0.0326016,0.022417,0.0236372,0.0211638,0.0197902,0.0159843,0.0198108,0.0201529,0.0287704,0.0238222,0.0213291,0.0262803,0.0232744,0.0201803,0.0275255,0.0227,0.0202763,0.0285502,0.0237745,0.0319047,0.0222564,0.0198639,0.0192909,0.0140742,0.0174676,0.0253238,0.0279597,0.0511907,0.107681,0.148027,0.22549,0.225599,0.21679,0.145193,0.11168,0.071101,0.0462004,0.057267,0.0420581,0.0699119,0.0733785,0.0650615,0.0734535,0.082128,0.0934991,0.0743448,0.0665373,0.0608695,0.0621515,0.0606518,0.0559507,0.0604239,0.0650214,0.0709122,0.0878827,0.140193,0.144947,0.165228,0.167108,0.16997,0.256875,0.202071,0.162445,0.171503,0.22481,0.182095,0.155742,0.12234,0.150673,0.148665,0.156352,0.177442,0.147696,0.17411,0.280554,0.386912,0.521576,1,1,1,1,1,1,1,1,0.658608,0.708149,0.750653,0.794054,0.76411,0.644837,0.617167,1,0.654308,0.287671,1,nan,nan,nan,nan,nan,nan,nan,nan,nan,nan,nan,nan,nan,nan,nan,nan,nan,nan,nan,nan,nan,nan,nan,nan,nan,nan,nan,nan,nan,nan,nan,nan,nan,nan,nan,nan,nan,nan,nan,nan,nan,nan,nan,nan,nan,nan,nan,nan,nan,nan,nan,nan,nan,nan,nan,nan,nan,nan,nan,nan,nan,nan,nan,nan,nan,nan,nan,nan,nan,nan,nan,nan,nan,nan,nan,nan,nan,nan,nan,nan,nan,nan,nan,nan,nan,nan,nan,nan,nan,nan,nan,nan,nan,nan,nan,nan,nan,nan,nan,nan,nan,nan,nan,nan,nan,nan,nan,nan,nan,nan,nan,nan,nan,nan,nan,nan,nan,nan,nan,nan,nan,nan
0.0220914,0.0254612,0.0248921,0.0359213,0.0403547,0.0496899,0.0420379,0.0586247,0.0498275,0.115084,0.135382,0.138542,0.134759,0.0931691,0.100995,0.143955,0.081761,0.0460947,0.0387191,0.0402129,0.032677,0.0201227,0.037015,0.0451078,0.0379624,0.0491904,0.0904414,0.115568,0.0842638,0.0643898,0.073209,0.058277,0.0659838,0.0337548,0.0451165,0.047752,0.0506162,0.055573,0.0599994,0.048085,0.0709621,0.0625457,0.0798441,0.0522647,0.0558244,0.158143,0.145596,0.129573,0.0893382,0.0612623,0.113371,0.138316,0.113853,0.0786665,0.0634889,0.0762062,0.0519376,0.0392438,0.0353617,0.0573961,0.037466,0.0438958,0.0317401,0.0276469,0.0321902,0.0271903,0.0176505,0.0130623,0.0214432,0.0216197,0.0319852,0.0246402,0.0196801,0.016428,0.0177254,0.0136986,0.0186596,0.0166487,0.0188586,0.0208518,0.029653,0.0291755,0.0344785,0.022921,0.0219255,0.0255306,0.0214143,0.0222997,0.018399,0.0275708,0.023121,0.0225214,0.0296425,0.0293232,0.0209964,0.0190314,0.01728,0.0229743,0.020872,0.0275398,0.0246106,0.0199615,0.022303,0.0192213,0.0194046,0.0188837,0.0251113,0.0266894,0.0303685,0.0588861,0.110441,0.151276,0.225081,0.223562,0.215656,0.147027,0.110828,0.0727126,0.0542945,0.0492089,0.0540133,0.0696943,0.0699178,0.0775837,0.0685456,0.0722175,0.0712582,0.0720718,0.0486515,0.0320294,0.0317233,0.0306067,0.0377492,0.0407086,0.0482967,0.0513466,0.0602116,0.067218,0.0742903,0.150218,0.153973,0.242597,0.251387,0.233125,0.191735,0.181577,0.171704,0.169228,0.192038,0.212902,0.217594,0.175499,0.158156,0.18894,0.169233,0.190362,0.275963,0.390085,0.572302,0.749697,1,1,1,1,0.76258,1,1,0.58332,0.517836,0.496928,0.500979,0.554946,0.615544,0.587634,0.647497,0.428907,0.468696,1,nan,nan,nan,nan,nan,nan,nan,nan,nan,nan,nan,nan,nan,nan,nan,nan,nan,nan,nan,nan,nan,nan,nan,nan,nan,nan,nan,nan,nan,nan,nan,nan,nan,nan,nan,nan,nan,nan,nan,nan,nan,nan,nan,nan,nan,nan,nan,nan,nan,nan,nan,nan,nan,nan,nan,nan,nan,nan,nan,nan,nan,nan,nan,nan,nan,nan,nan,nan,nan,nan,nan,nan,nan,nan,nan,nan,nan,nan,nan,nan,nan,nan,nan,nan,nan,nan,nan,nan,nan,nan,nan,nan,nan,nan,nan,nan,nan,nan,nan,nan,nan,nan,nan,nan,nan,nan,nan,nan,nan,nan,nan,nan,nan,nan,nan,nan,nan,nan,nan,nan,nan,nan
0.0284458,0.0285026,0.0365596,0.0468413,0.0497809,0.0496931,0.0480282,0.048373,0.0556193,0.111691,0.101796,0.110904,0.0993229,0.0982575,0.135575,0.128673,0.0959093,0.0508702,0.0380283,0.0295039,0.0377256,0.0193935,0.0387386,0.0406148,0.0467208,0.0385571,0.0753824,0.0829768,0.0890179,0.0517551,0.0723111,0.0795162,0.0660458,0.0521997,0.0691803,0.070323,0.0415212,0.0522269,0.0573621,0.0417427,0.0691234,0.0706675,0.0631983,0.0557209,0.0502953,0.137591,0.122361,0.09301,0.0833213,0.0580424,0.0738642,0.0616321,0.0677327,0.0784741,0.0872809,0.057625,0.0463508,0.0414498,0.0367711,0.0590044,0.0568382,0.0366807,0.0247994,0.0174731,0.0226723,0.0218448,0.0225129,0.0185597,0.0201099,0.0287322,0.021532,0.0242314,0.0172655,0.0185326,0.0182422,0.0197633,0.0149598,0.015559,0.0172881,0.0175497,0.0190582,0.0206749,0.0240918,0.0202751,0.0190168,0.0213651,0.0256383,0.0170964,0.0207843,0.0216187,0.0203852,0.0184554,0.0197876,0.0206822,0.0168341,0.0223071,0.0248584,0.0242479,0.0285651,0.0257445,0.0235104,0.0246794,0.0201125,0.0199407,0.0206773,0.024788,0.0217693,0.0305679,0.0262356,0.0590372,0.108521,0.147252,0.22711,0.226777,0.212249,0.148061,0.106571,0.0751953,0.0516119,0.0547313,0.0663155,0.0643131,0.0671464,0.0725017,0.0577443,0.0476211,0.0305517,0.0197448,0.0188195,0.0264332,0.023733,0.0277824,0.0269034,0.0292387,0.0364879,0.0394739,0.0386283,0.0411188,0.0564504,0.0659662,0.0732115,0.0786774,0.220256,0.227909,0.233059,0.164008,0.173454,0.195303,0.194494,0.199236,0.22017,0.186162,0.215514,0.174127,0.188082,0.209379,0.302348,0.399554,0.547995,0.562864,1,1,1,1,0.736342,0.738771,1,0.489225,0.588305,0.551468,0.616471,0.607041,0.595183,0.639142,0.595864,0.505167,0.597326,1,nan,nan,nan,nan,nan,nan,nan,nan,nan,nan,nan,nan,nan,nan,nan,nan,nan,nan,nan,nan,nan,nan,nan,nan,nan,nan,nan,nan,nan,nan,nan,nan,nan,nan,nan,nan,nan,nan,nan,nan,nan,nan,nan,nan,nan,nan,nan,nan,nan,nan,nan,nan,nan,nan,nan,nan,nan,nan,nan,nan,nan,nan,nan,nan,nan,nan,nan,nan,nan,nan,nan,nan,nan,nan,nan,nan,nan,nan,nan,nan,nan,nan,nan,nan,nan,nan,nan,nan,nan,nan,nan,nan,nan,nan,nan,nan,nan,nan,nan,nan,nan,nan,nan,nan,nan,nan,nan,nan,nan,nan,nan,nan,nan,nan,nan,nan,nan,nan,nan,nan,nan,nan
0.0390898,0.0477555,0.0461729,0.0501958,0.0438037,0.050554,0.0515913,0.0508399,0.0501653,0.0538465,0.0572135,0.0516994,0.0455917,0.0620524,0.0975814,0.129869,0.0781069,0.0668744,0.0467467,0.0259973,0.0278732,0.0286113,0.0327158,0.0334874,0.0268591,0.0301469,0.0676007,0.0830492,0.0958919,0.0589005,0.0712242,0.0874694,0.0807552,0.0876307,0.0894479,0.0610912,0.0445993,0.0430653,0.0604168,0.0602715,0.0563505,0.0599272,0.0532424,0.0504225,0.0420453,0.046517,0.0611554,0.0839433,0.0862012,0.0487716,0.0557461,0.0828181,0.0846705,0.0891658,0.0811225,0.0689324,0.0366353,0.036585,0.0420332,0.0405188,0.0503712,0.0286463,0.0185276,0.011435,0.0164071,0.0229235,0.0157733,0.0201854,0.0153558,0.0261947,0.019383,0.0168407,0.0235611,0.0167286,0.0160693,0.01878,0.0203963,0.0191655,0.0203539,0.0181439,0.0193658,0.0190072,0.0206767,0.0200222,0.0223828,0.019579,0.0202858,0.0177674,0.0176901,0.0161165,0.0161694,0.014876,0.0166809,0.0196158,0.0218806,0.0187317,0.0329031,0.0340952,0.0232847,0.0213637,0.0207435,0.0238299,0.022589,0.0207687,0.0270781,0.0278869,0.0199757,0.0197264,0.0233556,0.0513802,0.105572,0.13843,0.223346,0.228714,0.222313,0.146206,0.127834,0.0737476,0.0557694,0.0410802,0.0433615,0.0624955,0.0620248,0.0629324,0.0401863,0.0289253,0.0358037,0.0342063,0.0320857,0.0279445,0.0203719,0.0107465,0.0178987,0.0146209,0.0140202,0.0176798,0.0261671,0.0252287,0.0272219,0.0523925,0.0610487,0.0747086,0.0791913,0.0834354,0.153807,0.158794,0.161566,0.156416,0.19605,0.195368,0.185011,0.206458,0.202149,0.198729,0.174453,0.168567,0.232646,0.48662,0.51625,0.628033,1,1,1,1,0.595465,0.588191,0.604091,0.747341,0.58968,0.59048,0.600529,0.593875,0.621896,0.585253,0.572556,1,0.549858,1,nan,nan,nan,nan,nan,nan,nan,nan,nan,nan,nan,nan,nan,nan,nan,nan,nan,nan,nan,nan,nan,nan,nan,nan,nan,nan,nan,nan,nan,nan,nan,nan,nan,nan,nan,nan,nan,nan,nan,nan,nan,nan,nan,nan,nan,nan,nan,nan,nan,nan,nan,nan,nan,nan,nan,nan,nan,nan,nan,nan,nan,nan,nan,nan,nan,nan,nan,nan,nan,nan,nan,nan,nan,nan,nan,nan,nan,nan,nan,nan,nan,nan,nan,nan,nan,nan,nan,nan,nan,nan,nan,nan,nan,nan,nan,nan,nan,nan,nan,nan,nan,nan,nan,nan,nan,nan,nan,nan,nan,nan,nan,nan,nan,nan,nan,nan,nan,nan,nan,nan,nan,nan
0.0371027,0.0519617,0.0547506,0.0448336,0.0474098,0.101589,0.100507,0.0980494,0.0517744,0.051867,0.0476261,0.0453315,0.0349151,0.0362203,0.101809,0.104424,0.0734331,0.0622546,0.059293,0.0299821,0.0205699,0.0208596,0.0259599,0.0271156,0.0320738,0.0318491,0.0529343,0.0637876,0.0523909,0.0513931,0.0558518,0.0598486,0.0611597,0.08201,0.0904669,0.0788919,0.0645755,0.0418738,0.116289,0.0803982,0.0851825,0.065536,0.0544996,0.0442142,0.0363486,0.0472599,0.0573845,0.0416246,0.0434666,0.0523328,0.088909,0.0788236,0.0808769,0.0772491,0.0473516,0.0357545,0.035263,0.0477253,0.050827,0.0376018,0.038,0.033058,0.0214704,0.0195504,0.0215333,0.0179447,0.0278464,0.016288,0.0244154,0.0193275,0.013876,0.023322,0.0154058,0.0171423,0.0121005,0.0162211,0.0216721,0.0212796,0.0161631,0.0137423,0.0168296,0.0218799,0.0223662,0.0245928,0.024438,0.0171642,0.0179646,0.018662,0.0164114,0.017243,0.0168737,0.0209351,0.0165888,0.0161724,0.0162794,0.0193556,0.0277724,0.0291607,0.0258439,0.0215663,0.0182899,0.0240789,0.0229044,0.027296,0.0306978,0.0246291,0.0230104,0.0255717,0.0369989,0.0533978,0.0957258,0.137828,0.212832,0.222578,0.220577,0.16083,0.141866,0.0958473,0.0497051,0.036755,0.0395233,0.0386733,0.0298525,0.0339061,0.0260827,0.0272781,0.0333268,0.0191115,0.0272737,0.0235477,0.0125501,0.0146583,0.0145563,0.0198746,0.0163153,0.0128669,0.00817179,0.0101695,0.0118688,0.0153985,0.0381915,0.0600109,0.0679791,0.0711097,0.07622,0.0868066,0.0989531,0.0910489,0.0984232,0.101196,0.107796,0.105404,0.0878154,0.090482,0.0852457,0.0905171,0.0865389,0.210294,0.384841,0.40098,0.459791,1,1,1,0.554802,0.578836,0.53871,0.279247,0.337845,0.365959,0.367172,0.417957,0.402158,1,1,1,1,nan,nan,nan,nan,nan,nan,nan,nan,nan,nan,nan,nan,nan,nan,nan,nan,nan,nan,nan,nan,nan,nan,nan,nan,nan,nan,nan,nan,nan,nan,nan,nan,nan,nan,nan,nan,nan,nan,nan,nan,nan,nan,nan,nan,nan,nan,nan,nan,nan,nan,nan,nan,nan,nan,nan,nan,nan,nan,nan,nan,nan,nan,nan,nan,nan,nan,nan,nan,nan,nan,nan,nan,nan,nan,nan,nan,nan,nan,nan,nan,nan,nan,nan,nan,nan,nan,nan,nan,nan,nan,nan,nan,nan,nan,nan,nan,nan,nan,nan,nan,nan,nan,nan,nan,nan,nan,nan,nan,nan,nan,nan,nan,nan,nan,nan,nan,nan,nan,nan,nan,nan,nan,nan
0.0512336,0.0633567,0.0801793,0.0665113,0.100903,0.0937353,0.099469,0.0838247,0.061218,0.0296115,0.0219965,0.0219584,0.0265468,0.0274879,0.0311846,0.0746195,0.0594128,0.0787479,0.0577967,0.0391519,0.0255405,0.0180332,0.0193367,0.0253904,0.0309671,0.0356434,0.0510304,0.0652093,0.075494,0.0761014,0.0806555,0.0947179,0.0918678,0.0910889,0.0805971,0.0703708,0.0572752,0.0412817,0.0906169,0.114529,0.0777163,0.0658023,0.0648065,0.0502642,0.0506982,0.0481522,0.0588888,0.0581033,0.0439158,0.0450652,0.0369121,0.0605399,0.0820583,0.05873,0.0528834,0.0426748,0.0521274,0.0489599,0.0562889,0.0548056,0.0349206,0.0277928,0.0181681,0.0172204,0.0288047,0.0302766,0.0240308,0.0200148,0.024447,0.0163118,0.0171517,0.0174794,0.0218296,0.0203493,0.0127157,0.0172618,0.0223463,0.0171481,0.0182353,0.0173354,0.0176405,0.0194763,0.0215188,0.0223171,0.0211005,0.0207169,0.0243949,0.0227894,0.01991,0.0168011,0.0215344,0.0168248,0.0197174,0.0131873,0.0148428,0.018384,0.0205236,0.025469,0.0252122,0.0254698,0.0264068,0.0216489,0.0288162,0.0337821,0.0291933,0.0289451,0.0219672,0.0347503,0.0370547,0.0589159,0.0971298,0.139971,0.221029,0.223164,0.20971,0.177991,0.123654,0.100115,0.0661542,0.0431115,0.0315263,0.0298647,0.0269643,0.0245098,0.0259385,0.0227618,0.0254039,0.0254052,0.0204839,0.0154647,0.0125411,0.0124116,0.016365,0.0104914,0.00753306,0.00487737,0.00382709,0.00209963,0.000760618,0.00023842,0.00569012,0.0253573,0.0390925,0.0346104,0.0433681,0.0506603,0.0534741,0.0686984,0.0725605,0.0858214,0.0803533,0.0731754,0.0732949,0.070927,0.0654259,0.0522813,0.0644432,0.068186,0.36646,0.364467,0.417033,0.453552,0.491215,0.522653,0.550223,0.550919,0.503756,0.243712,0.26888,0.264043,0.282884,0.307803,0.340767,0.375624,0.461432,1,1,nan,nan,nan,nan,nan,nan,nan,nan,nan,nan,nan,nan,nan,nan,nan,nan,nan,nan,nan,nan,nan,nan,nan,nan,nan,nan,nan,nan,nan,nan,nan,nan,nan,nan,nan,nan,nan,nan,nan,nan,nan,nan,nan,nan,nan,nan,nan,nan,nan,nan,nan,nan,nan,nan,nan,nan,nan,nan,nan,nan,nan,nan,nan,nan,nan,nan,nan,nan,nan,nan,nan,nan,nan,nan,nan,nan,nan,nan,nan,nan,nan,nan,nan,nan,nan,nan,nan,nan,nan,nan,nan,nan,nan,nan,nan,nan,nan,nan,nan,nan,nan,nan,nan,nan,nan,nan,nan,nan,nan,nan,nan,nan,nan,nan,nan,nan,nan,nan,nan,nan,nan,nan,nan
0.0548785,0.0810815,0.0760878,0.0767682,0.0949933,0.0987051,0.0777735,0.065122,0.0559067,0.0235787,0.0200049,0.0251258,0.0212313,0.0320875,0.0254543,0.0571017,0.0750339,0.0642129,0.0473229,0.0390347,0.0242805,0.0243906,0.0304216,0.0322705,0.0395786,0.0377257,0.0446996,0.0669501,0.0954001,0.140133,0.136088,0.172794,0.129212,0.105313,0.0753089,0.0699523,0.0540109,0.0626017,0.089971,0.0896373,0.0906825,0.0545202,0.051526,0.0494691,0.0578185,0.0620714,0.045352,0.0459838,0.0444817,0.0463458,0.101342,0.0828689,0.0955175,0.0617119,0.064968,0.120625,0.125334,0.108792,0.0464573,0.0382432,0.0428445,0.0284106,0.0392518,0.0226536,0.0260034,0.0251471,0.0191357,0.0188778,0.0161838,0.0178674,0.020387,0.0190438,0.0210604,0.0227358,0.0259312,0.0163563,0.0163616,0.0170825,0.0192885,0.0191277,0.0171753,0.0168354,0.016049,0.0157542,0.0215829,0.0201362,0.027584,0.0278746,0.0193835,0.0193155,0.0183474,0.0216288,0.018808,0.0165254,0.0131903,0.0146235,0.0180287,0.0218871,0.0239817,0.026407,0.0244667,0.0279882,0.0336414,0.0303866,0.0305953,0.0357063,0.0362828,0.0374879,0.039674,0.0553729,0.0949221,0.125237,0.200927,0.219231,0.197258,0.158442,0.126025,0.0747386,0.0473994,0.0351307,0.0312398,0.0245142,0.0225257,0.0221754,0.0211268,0.0262088,0.0254188,0.0251065,0.0247869,0.012491,0.0102415,0.00810363,0.00764829,0.00671674,0.00600699,0.0049415,0.0031333,0.00174145,0.00110264,0.000839441,0.000905805,0.00168701,0.00304918,0.0144397,0.0106023,0.0114755,0.0238293,0.0238978,0.0258009,0.0463677,0.0519883,0.0527822,0.0481893,0.0438528,0.0261478,0.0302914,0.0276417,0.0386046,0.260921,0.352103,0.38543,0.405168,0.401764,0.435186,0.341626,0.375005,0.0782701,0.0913419,0.128366,0.158409,0.166068,0.184943,0.222196,0.267774,0.342637,0.456285,nan,nan,nan,nan,nan,nan,nan,nan,nan,nan,nan,nan,nan,nan,nan,nan,nan,nan,nan,nan,nan,nan,nan,nan,nan,nan,nan,nan,nan,nan,nan,nan,nan,nan,nan,nan,nan,nan,nan,nan,nan,nan,nan,nan,nan,nan,nan,nan,nan,nan,nan,nan,nan,nan,nan,nan,nan,nan,nan,nan,nan,nan,nan,nan,nan,nan,nan,nan,nan,nan,nan,nan,nan,nan,nan,nan,nan,nan,nan,nan,nan,nan,nan,nan,nan,nan,nan,nan,nan,nan,nan,nan,nan,nan,nan,nan,nan,nan,nan,nan,nan,nan,nan,nan,nan,nan,nan,nan,nan,nan,nan,nan,nan,nan,nan,nan,nan,nan,nan,nan,nan,nan,nan,nan
0.0556229,0.0843397,0.0841953,0.057926,0.0688413,0.0790798,0.0632765,0.055711,0.0522092,0.0196683,0.0199364,0.0271431,0.0223656,0.0326504,0.0278451,0.0368158,0.0420726,0.051062,0.0492669,0.0410587,0.0301811,0.0330769,0.0401045,0.0478717,0.0437274,0.0641635,0.0633987,0.0850027,0.0835339,0.158529,0.178015,0.173001,0.151541,0.0718755,0.0999622,0.0822056,0.0651112,0.0599139,0.0715217,0.0783983,0.0526036,0.058976,0.0514453,0.0582518,0.0554831,0.058867,0.0499924,0.0482945,0.0548299,0.0592046,0.0936715,0.109432,0.103052,0.0486585,0.0579334,0.125073,0.126217,0.111612,0.0364026,0.0345842,0.0367453,0.0407646,0.0323456,0.0262402,0.021314,0.0227952,0.0192948,0.0173132,0.0179214,0.0200229,0.0155186,0.0191914,0.0361396,0.0362181,0.0351723,0.017428,0.0145433,0.0158151,0.0169449,0.0149648,0.0162614,0.0145529,0.0165834,0.0187889,0.0182404,0.0203468,0.022251,0.026926,0.0275199,0.019066,0.0235128,0.0156335,0.0160313,0.0117559,0.0156727,0.0199539,0.0134242,0.0158353,0.0160762,0.0230013,0.0264495,0.0276175,0.0265873,0.0251276,0.0280905,0.0349695,0.0381751,0.0298279,0.0278092,0.0495823,0.0856831,0.127,0.197988,0.193788,0.192506,0.172888,0.119544,0.0709496,0.0281785,0.014104,0.0069405,0.00656654,0.00700992,0.00858944,0.00793057,0.00744414,0.00666947,0.00593313,0.0105348,0.0102193,0.0110539,0.00777604,0.00777728,0.00753331,0.00572079,0.00428985,0.00228767,0.00116944,0.000961414,0.000927389,0.00116973,0.0016291,0.00160288,0.00210374,0.00215988,0.004408,0.00871608,0.0122258,0.0302016,0.0385358,0.0375946,0.0366908,0.0159194,0.00960352,0.00687167,0.00342235,0.00346201,0.0081926,0.000178416,0.239148,0.257197,0.375507,0.27624,0.284255,0.302436,0.332979,0.0131238,0.030028,0.0515975,0.0388821,0.049433,0.0618524,0.0276895,0.104397,0.195307,0.0828765,0.208139,nan,nan,nan,nan,nan,nan,nan,nan,nan,nan,nan,nan,nan,nan,nan,nan,nan,nan,nan,nan,nan,nan,nan,nan,nan,nan,nan,nan,nan,nan,nan,nan,nan,nan,nan,nan,nan,nan,nan,nan,nan,nan,nan,nan,nan,nan,nan,nan,nan,nan,nan,nan,nan,nan,nan,nan,nan,nan,nan,nan,nan,nan,nan,nan,nan,nan,nan,nan,nan,nan,nan,nan,nan,nan,nan,nan,nan,nan,nan,nan,nan,nan,nan,nan,nan,nan,nan,nan,nan,nan,nan,nan,nan,nan,nan,nan,nan,nan,nan,nan,nan,nan,nan,nan,nan,nan,nan,nan,nan,nan,nan,nan,nan,nan,nan,nan,nan,nan,nan,nan,nan,nan,nan
0.108914,0.0970192,0.0820037,0.0622986,0.0534415,0.0621069,0.0570085,0.0533029,0.0150781,0.0169069,0.0261854,0.0311337,0.0296682,0.0416143,0.0427209,0.0417499,0.0671203,0.0582617,0.0606192,0.0626207,0.0442216,0.0608287,0.041461,0.0442859,0.0435259,0.0458822,0.0515799,0.0550838,0.0690537,0.177133,0.184864,0.184517,0.173545,0.0779346,0.0812537,0.068428,0.0513817,0.0533515,0.0524644,0.0477598,0.0766914,0.136232,0.116071,0.0847412,0.0579894,0.0584311,0.0621254,0.0589357,0.065027,0.0619995,0.099596,0.0880935,0.0871061,0.0529047,0.045924,0.114058,0.100837,0.100739,0.0434382,0.0347142,0.0272009,0.0246006,0.0269362,0.017999,0.030374,0.0198046,0.0238946,0.0204013,0.0133051,0.0240559,0.0223998,0.0158355,0.0220481,0.0312989,0.0348586,0.0138081,0.0202346,0.0165804,0.0186136,0.0142267,0.0127921,0.0136632,0.0144778,0.0187542,0.0184353,0.0218031,0.02213,0.0274592,0.0240496,0.0321526,0.0247106,0.0182348,0.0131773,0.0139355,0.0175856,0.0163991,0.0176532,0.0144205,0.0135322,0.0148406,0.0175008,0.0251831,0.0235384,0.0253783,0.023807,0.0295439,0.0313927,0.0274449,0.0297759,0.0392038,0.0679723,0.112812,0.182975,0.18772,0.198992,0.176269,0.124128,0.0746561,0.0319287,0.0121418,0.00470706,0.00584977,0.00571754,0.00630269,0.00719286,0.00697594,0.00711219,0.0068991,0.00629842,0.00628485,0.0205273,0.0178819,0.0174388,0.00834149,0.00378215,0.00230403,0.00114666,0.00093542,0.000935246,0.00111283,0.00120765,0.0013086,0.00156899,0.00161193,0.00251466,0.00515229,0.00979802,0.0168641,0.0313021,0.0320775,0.0372854,0.0145395,0.0115654,0.00812811,0.00456827,0.00321572,0,0,1.35589e-16,2.65171e-16,0,1.37982e-16,0.268811,0.00175013,0.00292104,0.00620393,0.0164864,0.025571,0.0255141,0.0289021,0.0283396,0.0344107,0.0325488,0.0329759,0.058397,0.0766772,0.0926932,nan,nan,nan,nan,nan,nan,nan,nan,nan,nan,nan,nan,nan,nan,nan,nan,nan,nan,nan,nan,nan,nan,nan,nan,nan,nan,nan,nan,nan,nan,nan,nan,nan,nan,nan,nan,nan,nan,nan,nan,nan,nan,nan,nan,nan,nan,nan,nan,nan,nan,nan,nan,nan,nan,nan,nan,nan,nan,nan,nan,nan,nan,nan,nan,nan,nan,nan,nan,nan,nan,nan,nan,nan,nan,nan,nan,nan,nan,nan,nan,nan,nan,nan,nan,nan,nan,nan,nan,nan,nan,nan,nan,nan,nan,nan,nan,nan,nan,nan,nan,nan,nan,nan,nan,nan,nan,nan,nan,nan,nan,nan,nan,nan,nan,nan,nan,nan,nan,nan,nan,nan,nan,nan
0.121992,0.103797,0.114829,0.0554813,0.0436027,0.0323438,0.0168112,0.0158204,0.0103656,0.0244352,0.025165,0.0313061,0.0394043,0.0432788,0.0496159,0.0597786,0.0765771,0.0744734,0.0535441,0.0574618,0.0598019,0.0424763,0.0377394,0.0637748,0.0602137,0.0601744,0.0802594,0.0907618,0.101673,0.0713906,0.0809736,0.0846812,0.0615938,0.0691989,0.0382694,0.0395545,0.0240371,0.033995,0.0330209,0.053064,0.12315,0.134094,0.0979483,0.0743793,0.0473119,0.0519859,0.0631117,0.0556215,0.0592102,0.0677488,0.0821164,0.0552227,0.0519918,0.0522733,0.0357083,0.0467287,0.0421266,0.0552888,0.0457016,0.0406329,0.0287454,0.0235241,0.0212973,0.0226007,0.025171,0.0306247,0.0245793,0.0198576,0.0230832,0.0254336,0.0274286,0.0128043,0.0169543,0.0179008,0.0154969,0.019287,0.0218795,0.019851,0.0178011,0.0158672,0.0144259,0.0100789,0.0162421,0.0137352,0.0129556,0.0161176,0.0196107,0.0243703,0.0318928,0.0300977,0.0217403,0.0159751,0.0172219,0.0160314,0.0149947,0.0214804,0.0218268,0.0130452,0.0100769,0.0122967,0.0117421,0.0171012,0.0171128,0.0202006,0.025903,0.0234635,0.0277225,0.0273447,0.0309328,0.0341581,0.0645118,0.107354,0.151403,0.182065,0.195064,0.188682,0.122637,0.0810384,0.0502964,0.0190193,0.0112241,0.0113302,0.0113093,0.0119844,0.0152429,0.0149374,0.019727,0.0189077,0.0192043,0.0191857,0.0177673,0.016409,0.0110064,0.00869489,0.00559618,0.00201706,0.00229227,0.00122993,0.000817758,0.00664309,0.00797892,0.00786085,0.00942534,0.00959441,0.0108043,0.0185009,0.02165,0.0292727,0.0331809,0.0272938,0.0272033,0.0145791,0.0108825,0.00652334,0.00288228,0.00119841,1.31538e-16,0,0,1.32747e-16,0,1.40669e-16,0.000724623,0.00135528,0.00224902,0.0092042,0.02001,0.0236059,0.0271508,0.0277546,0.026058,0.0364268,0.0442118,0.0493474,0.0520562,0.0588607,0.081495,0.0836524,nan,nan,nan,nan,nan,nan,nan,nan,nan,nan,nan,nan,nan,nan,nan,nan,nan,nan,nan,nan,nan,nan,nan,nan,nan,nan,nan,nan,nan,nan,nan,nan,nan,nan,nan,nan,nan,nan,nan,nan,nan,nan,nan,nan,nan,nan,nan,nan,nan,nan,nan,nan,nan,nan,nan,nan,nan,nan,nan,nan,nan,nan,nan,nan,nan,nan,nan,nan,nan,nan,nan,nan,nan,nan,nan,nan,nan,nan,nan,nan,nan,nan,nan,nan,nan,nan,nan,nan,nan,nan,nan,nan,nan,nan,nan,nan,nan,nan,nan,nan,nan,nan,nan,nan,nan,nan,nan,nan,nan,nan,nan,nan,nan,nan,nan,nan,nan,nan,nan,nan,nan,nan
0.127028,0.122692,0.103896,0.0526166,0.0447179,0.0256673,0.0172165,0.0154261,0.0218408,0.0326399,0.0300027,0.0293354,0.0226982,0.0354946,0.0422211,0.0453922,0.060885,0.0669078,0.0696713,0.0681868,0.0424705,0.036418,0.0311594,0.0581997,0.0768438,0.121149,0.142491,0.0996005,0.140244,0.0734316,0.0805013,0.0751572,0.0822596,0.104352,0.0932599,0.0372327,0.0399929,0.0286432,0.0383588,0.0352836,0.101949,0.10341,0.0970136,0.0667402,0.0414485,0.0476903,0.0591494,0.0410213,0.046131,0.115377,0.130801,0.136597,0.0566758,0.0444028,0.036568,0.0674421,0.0540514,0.0827973,0.0442186,0.0302065,0.0143518,0.0169676,0.0187413,0.0226824,0.0294948,0.0159001,0.0241592,0.0237308,0.0150656,0.0180237,0.0207304,0.0194975,0.0200189,0.021918,0.0151322,0.0188846,0.022021,0.0204605,0.0156592,0.0148704,0.0117099,0.0101924,0.0101407,0.0124454,0.0130862,0.0152942,0.0221843,0.0189357,0.0188198,0.0199135,0.0202629,0.0192637,0.0182177,0.0141605,0.0174642,0.0153137,0.0182321,0.0112682,0.011302,0.00900087,0.0115043,0.0136823,0.0157824,0.0210407,0.0218928,0.0198439,0.0196269,0.0231483,0.0223696,0.0290464,0.0592937,0.115696,0.174862,0.206617,0.19283,0.187736,0.116856,0.0808039,0.0424771,0.0141217,0.00612902,0.00829644,0.00585849,0.00983537,0.0102572,0.0125542,0.00859826,0.016251,0.0123659,0.0146005,0.0155358,0.0111263,0.0111755,0.00635864,0.00668137,0.00368334,0.00205654,0.00172375,0.00160656,0.00718243,0.00712689,0.00841466,0.00722238,0.0102994,0.0114217,0.0127501,0.0220683,0.0223269,0.0319934,0.0378847,0.0272282,0.0127853,0.00838437,0.00202175,0.000569323,6.60929e-06,1.33063e-16,0,0,0,0,1.47984e-16,0.00077024,0.00156426,0.00465055,0.020744,0.0358339,0.0330393,0.0267862,0.0282478,0.027845,0.0528071,0.0508116,0.0508116,0.0493233,0.0753984,0.0785887,0.0688016,nan,nan,nan,nan,nan,nan,nan,nan,nan,nan,nan,nan,nan,nan,nan,nan,nan,nan,nan,nan,nan,nan,nan,nan,nan,nan,nan,nan,nan,nan,nan,nan,nan,nan,nan,nan,nan,nan,nan,nan,nan,nan,nan,nan,nan,nan,nan,nan,nan,nan,nan,nan,nan,nan,nan,nan,nan,nan,nan,nan,nan,nan,nan,nan,nan,nan,nan,nan,nan,nan,nan,nan,nan,nan,nan,nan,nan,nan,nan,nan,nan,nan,nan,nan,nan,nan,nan,nan,nan,nan,nan,nan,nan,nan,nan,nan,nan,nan,nan,nan,nan,nan,nan,nan,nan,nan,nan,nan,nan,nan,nan,nan,nan,nan,nan,nan,nan,nan,nan,nan,nan,nan
0.124857,0.112702,0.0851231,0.0666436,0.0422985,0.0311613,0.0483985,0.0424446,0.0403821,0.0296196,0.0373347,0.0225921,0.0206925,0.056553,0.0558686,0.0659226,0.0595131,0.0753939,0.0707883,0.0532533,0.0653837,0.0364091,0.0345655,0.0543412,0.105103,0.120547,0.0817214,0.13512,0.147478,0.0688893,0.0789993,0.0697644,0.11563,0.0883162,0.0775077,0.0607776,0.0575658,0.0628334,0.0656,0.0818542,0.050827,0.0413304,0.0416465,0.0400122,0.0376114,0.0485478,0.119778,0.124648,0.121337,0.117604,0.133777,0.122476,0.0421722,0.0428153,0.0369812,0.0720166,0.0820711,0.0548721,0.0471688,0.0250159,0.0158372,0.0211201,0.0280423,0.0375766,0.0382008,0.0200276,0.0201852,0.0170031,0.013462,0.0118058,0.0102003,0.0135649,0.0177443,0.0180065,0.0152289,0.0216672,0.0166765,0.0179345,0.0176771,0.0105735,0.0135906,0.00930815,0.00939873,0.0121767,0.00990125,0.0151368,0.019258,0.0169011,0.0229767,0.0253877,0.0224496,0.0215116,0.0170258,0.0143528,0.0121681,0.0145267,0.0103856,0.0170918,0.00793489,0.00626681,0.00760218,0.0062459,0.0065178,0.00760601,0.0189526,0.0199621,0.020237,0.023947,0.0206852,0.0291136,0.0596929,0.110591,0.170285,0.1866,0.204989,0.182858,0.114858,0.0806506,0.0461014,0.0148494,0.00759689,0.00788333,0.00780336,0.00958781,0.00757528,0.00663614,0.009973,0.0154961,0.0151374,0.0149245,0.0153913,0.016033,0.00831349,0.00865913,0.0053685,0.00253974,0.00128831,0.00094233,0.00107822,0.00652076,0.00671801,0.00619322,0.00926358,0.00924467,0.0105772,0.0184907,0.0227975,0.0302651,0.0372744,0.0281295,0.0270594,0.0233156,0.00822731,0.00394991,0.00130877,6.60929e-06,-1.34683e-16,0.00140391,0,0,1.43167e-16,0.000759498,0.00111702,0.00150886,0.00538108,0.0213618,0.0462551,0.0482015,0.0266317,0.029146,0.0265893,0.0356593,0.0388298,0.0403949,0.0562352,0.0749638,0.0772471,0.0794185,nan,nan,nan,nan,nan,nan,nan,nan,nan,nan,nan,nan,nan,nan,nan,nan,nan,nan,nan,nan,nan,nan,nan,nan,nan,nan,nan,nan,nan,nan,nan,nan,nan,nan,nan,nan,nan,nan,nan,nan,nan,nan,nan,nan,nan,nan,nan,nan,nan,nan,nan,nan,nan,nan,nan,nan,nan,nan,nan,nan,nan,nan,nan,nan,nan,nan,nan,nan,nan,nan,nan,nan,nan,nan,nan,nan,nan,nan,nan,nan,nan,nan,nan,nan,nan,nan,nan,nan,nan,nan,nan,nan,nan,nan,nan,nan,nan,nan,nan,nan,nan,nan,nan,nan,nan,nan,nan,nan,nan,nan,nan,nan,nan,nan,nan,nan,nan,nan,nan,nan,nan,nan
0.0639433,0.0815993,0.083258,0.0506831,0.0435872,0.0366056,0.0536125,0.0453922,0.0392673,0.0295521,0.0234625,0.0202609,0.0200401,0.0610113,0.0616825,0.0493213,0.0630624,0.0599998,0.0705317,0.0640889,0.0511698,0.0513346,0.0410445,0.0396181,0.122953,0.106228,0.12945,0.152268,0.158157,0.181232,0.0641522,0.0668342,0.0919372,0.0793527,0.0805018,0.0822797,0.04411,0.078153,0.0804562,0.0690664,0.0668199,0.0596972,0.0572728,0.0396402,0.0316224,0.0408837,0.0991709,0.118743,0.0792552,0.0977514,0.105625,0.121954,0.0489323,0.041229,0.0314177,0.064251,0.0721965,0.0724429,0.0402142,0.0264814,0.0195531,0.0167818,0.0240304,0.0316474,0.0296644,0.017998,0.0176518,0.0141385,0.00870908,0.0110402,0.0127438,0.00960144,0.0144433,0.0205917,0.0141535,0.0153037,0.0180625,0.0121106,0.0124502,0.00876168,0.00906829,0.00972367,0.00794385,0.00916034,0.0097997,0.0123112,0.0111447,0.0135645,0.0238689,0.017897,0.0180362,0.018021,0.015386,0.0155989,0.0134189,0.0112706,0.00767362,0.00932611,0.00884917,0.00406326,0.0025451,0.00380483,0.00501837,0.00619354,0.0174844,0.0202425,0.0215218,0.022799,0.0211271,0.0210916,0.0560282,0.0981852,0.181383,0.186791,0.187978,0.183843,0.102482,0.0632324,0.0267284,0.00453919,0.00135126,0.00129486,0.00131588,0.005983,0.00704223,0.00712145,0.00728515,0.00767354,0.00346125,0.0027766,0.00304684,0.00382245,0.00372625,0.00365642,0.00330482,0.00239473,0.00187763,0.00176001,0.00139726,0.00207057,0.00285659,0.0027689,0.00281043,0.00142456,0.00263844,0.0045223,0.0107805,0.0246866,0.0267819,0.0375268,0.0259343,0.0232171,0.00847813,0.00444924,0.00231155,0.00327751,0.00325045,0.00135663,0.0014117,0.00138271,0.00148522,1.42896e-16,0.000735524,0.00140376,0.00487106,0.0211855,0.0341345,0.0348572,0.0258858,0.0266372,0.0272157,0.0306356,0.0207291,0.0263237,0.0239911,0.0678115,0.061983,nan,nan,nan,nan,nan,nan,nan,nan,nan,nan,nan,nan,nan,nan,nan,nan,nan,nan,nan,nan,nan,nan,nan,nan,nan,nan,nan,nan,nan,nan,nan,nan,nan,nan,nan,nan,nan,nan,nan,nan,nan,nan,nan,nan,nan,nan,nan,nan,nan,nan,nan,nan,nan,nan,nan,nan,nan,nan,nan,nan,nan,nan,nan,nan,nan,nan,nan,nan,nan,nan,nan,nan,nan,nan,nan,nan,nan,nan,nan,nan,nan,nan,nan,nan,nan,nan,nan,nan,nan,nan,nan,nan,nan,nan,nan,nan,nan,nan,nan,nan,nan,nan,nan,nan,nan,nan,nan,nan,nan,nan,nan,nan,nan,nan,nan,nan,nan,nan,nan,nan,nan,nan,nan
