1.93909,0.839647,1.21945,1.17947,1.03955,0.799667,1.13949,1.79916,1.83914,1.75918,1.77917,0.579778,0.0400516,7.18832e-05,-0.0399079,-0.0399079,-0.0399079,-0.0399079,-0.0798876,0.100021,0.29992,0.759687,0.599768,-0.199827,0.519809,0.819657,1.33939,1.43934,1.35938,1.65923,1.69921,1.65923,1.45933,1.01956,0.35989,-0.139857,-0.219817,-0.199827,-0.179837,-0.239807,-0.279786,-0.259797,-0.259797,-0.239807,-0.299776,-0.279786,-0.259797,-0.299776,-0.279786,0.0200617,-0.0798876,-0.259797,-0.219817,-0.219817,-0.199827,-0.199827,-0.239807,-0.219817,-0.199827,-0.199827,-0.199827,-0.179837,-0.179837,-0.139857,-0.0998775,-0.0998775,-0.0998775,-0.119867,-0.0998775,-0.0998775,-0.0798876,-0.119867,-0.0998775,-0.0998775,-0.0798876,-0.0399079,-0.0199181,-0.0199181,-0.0798876,0.0400516,0.100021,-0.0399079,-0.0399079,-0.0399079,-0.0199181,-0.0798876,-0.0998775,-0.0798876,7.18832e-05,-0.139857,-0.179837,-0.139857,-0.119867,-0.119867,-0.0998775,-0.0998775,-0.0798876,7.18832e-05,-0.0598978,-0.159847,-0.159847,-0.139857,-0.0998775,-0.0798876,-0.0798876,-0.0598978,-0.0399079,-0.0399079,-0.0199181,-0.0199181,0.0200617,0.0200617,0.0400516,0.0600414,7.18832e-05,-0.0199181,7.18832e-05,7.18832e-05,7.18832e-05,7.18832e-05,7.18832e-05,0.0200617,0.0200617,0.0400516,0.0600414,0.0600414,0.0600414,0.0600414,0.0800314,0.0800314,0.0800314,0.100021,0.120011,0.120011,0.120011,0.140001,0.140001,0.140001,0.159991,0.179981,0.199971,0.199971,0.399869,1.1195,1.45933,1.57927,1.83914,1.9191,1.99906,2.03904,1.81915,1.95908,1.85913,1.1195,0.559788,1.05954,1.63924,1.53929,1.19946,1.01956,0.439849,0.579778,0.419859,0.419859,0.419859,0.439849,0.439849,0.439849,0.459839,0.459839,0.499819,0.519809,0.479829,0.479829,0.479829,0.479829,0.459839,0.459839,0.459839,0.459839,0.459839,0.459839,0.459839,0.479829,0.499819,0.519809,0.559788,0.619758,0.659738,0.739697,0.799667,0.739697,0.799667,0.939596,0.899616,0.859637,0.779677,0.819657,0.939596,0.859637,0.899616,0.919606,0.859637,0.799667,0.879627,0.939596,1.01956,0.959586,0.839647,0.979576,0.839647,0.879627,0.879627,0.959586,0.999566,0.919606,0.919606,0.879627,0.899616,0.899616,0.919606,0.999566,1.61925,1.37937,1.53929,1.89911,1.33939,1.43934,1.43934,1.41935,1.43934,1.43934,1.47932,1.67922,1.75918,1.7192,1.39936,1.1195,1.19946,1.3194,1.5193,1.67922,1.7192,1.59926,1.95908,2.09901,2.39886,3.85812,2.63874,1.93909,1.55928,1.61925,1.95908,2.05903,2.29891,1.89911,1.39936,1.29941,1.29941,1.27942,1.23944,1.15948,1.17947,1.15948,1.15948,1.75918,3.43833,2.07902,2.33889,2.45883,2.83863,2.17897,1.87912,2.37887,2.17897,1.77917,1.53929,1.49931,1.5193,1.43934,1.39936,1.43934,1.47932,1.49931,1.47932,1.3194,1.15948,1.29941,1.27942,1.19946,1.19946,1.21945,1.23944,1.23944,1.23944,1.23944,1.23944,1.23944,1.23944,1.27942
1.9191,0.999566,0.819657,0.819657,0.439849,0.179981,0.779677,1.87912,2.05903,1.95908,1.9191,1.09952,0.179981,-0.139857,-0.0399079,-0.0399079,-0.0199181,0.0200617,0.120011,0.35989,0.819657,0.759687,1.61925,1.99906,2.09901,2.09901,1.85913,1.83914,1.61925,1.61925,1.95908,2.55878,3.93808,1.67922,0.439849,0.0200617,-0.179837,0.0600414,-0.199827,-0.299776,-0.279786,-0.259797,-0.319766,-0.319766,-0.239807,-0.339756,-0.339756,-0.319766,-0.199827,-0.0598978,-0.159847,-0.239807,-0.219817,-0.219817,-0.199827,-0.219817,-0.239807,-0.219817,-0.179837,-0.199827,-0.199827,-0.199827,-0.219817,-0.179837,-0.0998775,-0.0998775,-0.0998775,-0.119867,-0.0998775,0.219961,0.179981,0.459839,0.120011,-0.159847,-0.139857,-0.0998775,-0.0798876,-0.0798876,-0.0598978,0.0200617,0.0200617,-0.0199181,-0.0798876,-0.0798876,-0.0598978,-0.119867,-0.0998775,-0.0399079,-0.199827,-0.179837,-0.139857,-0.119867,-0.119867,-0.119867,-0.139857,-0.159847,-0.159847,-0.179837,-0.179837,-0.159847,-0.139857,-0.139857,-0.0798876,-0.0998775,-0.0598978,-0.0399079,-0.0199181,7.18832e-05,-0.0199181,-0.0199181,7.18832e-05,7.18832e-05,7.18832e-05,0.0800314,-0.0798876,-0.0598978,-0.0399079,-0.0199181,-0.0199181,7.18832e-05,7.18832e-05,0.0200617,0.0200617,0.0400516,0.0400516,0.0400516,0.0600414,0.0800314,0.0800314,0.0800314,0.100021,0.100021,0.120011,0.120011,0.120011,0.140001,0.140001,0.140001,0.159991,0.159991,0.179981,0.179981,0.3399,1.01956,1.23944,1.55928,1.69921,1.85913,1.93909,1.99906,2.01905,2.119,2.119,0.27993,1.25943,1.99906,1.65923,1.23944,0.939596,0.439849,0.439849,0.439849,0.419859,0.419859,0.419859,0.439849,0.439849,0.439849,0.439849,0.459839,0.479829,0.479829,0.459839,0.459839,0.459839,0.479829,0.459839,0.459839,0.459839,0.459839,0.459839,0.459839,0.459839,0.459839,0.459839,0.499819,0.499819,0.539799,0.619758,0.619758,0.659738,0.679728,0.719707,0.779677,0.779677,0.739697,0.759687,0.959586,0.839647,0.839647,0.859637,0.739697,0.739697,0.799667,0.919606,0.879627,0.839647,0.759687,0.799667,0.799667,0.879627,0.899616,0.959586,1.05954,0.999566,0.899616,0.879627,0.859637,0.859637,0.919606,0.879627,1.9191,1.63924,1.45933,1.95908,1.77917,1.47932,1.27942,1.25943,1.25943,1.25943,1.23944,1.23944,1.25943,1.17947,1.17947,1.21945,1.23944,1.35938,1.49931,1.65923,1.75918,1.77917,2.21895,1.97907,2.19896,1.97907,2.23894,1.67922,1.9191,1.95908,2.09901,2.5188,2.87861,2.59876,2.01905,1.13949,1.25943,1.27942,1.29941,1.29941,1.15948,1.17947,1.17947,1.17947,1.79916,2.55878,2.29891,2.45883,2.5188,2.09901,2.25893,1.85913,2.13899,1.95908,1.55928,1.49931,1.39936,1.39936,1.39936,1.39936,1.35938,1.43934,1.3194,1.29941,1.23944,1.15948,1.27942,1.23944,1.23944,1.19946,1.21945,1.21945,1.23944,1.23944,1.23944,1.23944,1.23944,1.23944,1.25943
1.99906,2.63874,3.0985,-0.379736,-0.0598978,-0.259797,0.579778,1.99906,2.27892,2.37887,2.05903,1.37937,0.639748,0.179981,-0.0798876,7.18832e-05,7.18832e-05,0.100021,0.179981,-0.0998775,1.33939,1.03955,1.95908,2.5188,1.43934,1.69921,1.73919,1.67922,1.5193,1.25943,0.619758,0.859637,1.27942,-0.0399079,0.199971,0.120011,0.0800314,0.759687,2.79865,1.01956,0.25994,0.0200617,-0.319766,-0.299776,-0.339756,-0.339756,-0.319766,-0.319766,-0.359746,-0.219817,-0.219817,-0.239807,-0.219817,-0.219817,-0.199827,-0.219817,-0.219817,-0.219817,-0.179837,-0.199827,-0.199827,-0.199827,-0.219817,-0.219817,-0.0998775,-0.0798876,-0.0798876,-0.0399079,0.419859,1.17947,1.43934,1.43934,-0.0598978,-0.0598978,-0.0998775,-0.0598978,-0.0598978,-0.0598978,-0.0598978,-0.0399079,-0.0598978,-0.0399079,-0.0798876,-0.0798876,-0.119867,-0.119867,-0.0998775,-0.0998775,-0.0798876,0.0600414,-0.0598978,-0.119867,-0.119867,-0.139857,-0.179837,-0.199827,-0.199827,-0.179837,-0.159847,-0.159847,-0.139857,-0.119867,-0.0998775,-0.0998775,-0.0598978,-0.0199181,7.18832e-05,7.18832e-05,0.0400516,-0.0399079,-0.0399079,-0.0399079,-0.0798876,-0.0598978,-0.0598978,-0.0598978,-0.0399079,-0.0199181,-0.0199181,7.18832e-05,7.18832e-05,0.0200617,0.0200617,0.0400516,0.0400516,0.0400516,0.0600414,0.0800314,0.0800314,0.0800314,0.100021,0.100021,0.120011,0.120011,0.120011,0.140001,0.140001,0.140001,0.159991,0.179981,0.199971,0.199971,0.31991,0.999566,0.599768,1.41935,1.59926,1.75918,1.87912,1.95908,1.97907,2.07902,1.69921,1.29941,1.73919,1.67922,1.27942,1.15948,0.37988,0.399869,0.37988,0.37988,0.399869,0.419859,0.439849,0.439849,0.419859,0.419859,0.439849,0.439849,0.459839,0.459839,0.459839,0.459839,0.459839,0.459839,0.459839,0.459839,0.459839,0.459839,0.459839,0.479829,0.479829,0.499819,0.499819,0.499819,0.519809,0.539799,0.559788,0.599768,0.599768,0.599768,0.619758,0.639748,0.639748,0.679728,0.719707,0.719707,0.739697,0.759687,0.739697,0.659738,0.739697,0.759687,0.819657,0.799667,0.779677,0.759687,0.759687,0.799667,0.979576,0.939596,0.919606,0.939596,0.879627,0.859637,0.839647,0.839647,0.859637,1.13949,1.23944,1.53929,2.15898,1.69921,1.79916,1.45933,1.19946,1.03955,1.03955,1.01956,1.01956,1.03955,1.05954,1.05954,1.09952,1.09952,1.13949,1.27942,1.47932,1.59926,1.69921,1.7192,1.7192,1.43934,1.99906,2.43884,1.9191,1.99906,2.19896,2.01905,2.03904,2.07902,1.87912,1.89911,3.2984,1.93909,1.19946,1.29941,1.33939,1.37937,1.37937,1.23944,1.19946,1.15948,1.21945,1.53929,1.49931,1.81915,1.41935,2.45883,1.3194,2.99855,2.47882,1.93909,1.55928,1.29941,1.33939,1.35938,1.29941,1.3194,1.3194,1.19946,1.1195,1.15948,1.17947,1.21945,1.15948,1.15948,1.19946,1.19946,1.19946,1.19946,1.19946,1.21945,1.21945,1.21945,1.21945,1.21945,1.21945,1.21945
2.45883,2.73869,-0.379736,-0.379736,-0.459695,-0.439705,7.18832e-05,1.37937,2.39886,2.79865,1.59926,1.07953,0.639748,0.29992,-0.0798876,7.18832e-05,7.18832e-05,0.0400516,0.0400516,-0.0598978,1.55928,1.47932,1.75918,1.61925,1.55928,1.35938,1.41935,1.7192,1.77917,1.89911,1.39936,1.97907,1.65923,0.25994,0.399869,0.140001,0.0800314,0.739697,1.23944,0.519809,0.579778,-0.0199181,0.100021,-0.179837,-0.319766,-0.339756,-0.379736,-0.339756,-0.339756,-0.299776,-0.299776,-0.259797,-0.239807,-0.219817,-0.199827,-0.199827,-0.179837,-0.179837,-0.179837,-0.219817,-0.199827,-0.199827,-0.219817,-0.219817,-0.219817,-0.0199181,0.459839,0.879627,1.23944,1.89911,2.01905,1.77917,0.859637,0.499819,0.31991,0.219961,-0.0598978,-0.0399079,-0.0399079,-0.0798876,-0.0998775,-0.0798876,-0.0798876,-0.0798876,-0.119867,-0.139857,-0.139857,-0.159847,-0.119867,-0.0598978,-0.0998775,-0.139857,-0.159847,-0.159847,-0.199827,-0.179837,-0.179837,-0.179837,-0.159847,-0.159847,-0.139857,-0.0998775,-0.0598978,-0.0399079,-0.0399079,7.18832e-05,0.0200617,7.18832e-05,-0.119867,-0.0998775,-0.0798876,-0.0598978,-0.0598978,-0.0598978,-0.0598978,-0.0598978,-0.0399079,-0.0199181,-0.0199181,7.18832e-05,7.18832e-05,0.0200617,0.0200617,0.0200617,7.18832e-05,0.0200617,0.0200617,0.0400516,0.0400516,0.0600414,0.0800314,0.0800314,0.100021,0.100021,0.100021,0.100021,0.100021,0.140001,0.179981,0.179981,0.25994,0.199971,0.639748,1.33939,1.15948,0.939596,1.33939,1.49931,1.7192,1.87912,1.95908,2.03904,2.05903,1.95908,1.67922,1.19946,0.919606,0.699718,0.479829,0.419859,0.399869,0.37988,0.399869,0.419859,0.439849,0.439849,0.439849,0.419859,0.439849,0.459839,0.459839,0.459839,0.459839,0.459839,0.479829,0.459839,0.439849,0.439849,0.439849,0.439849,0.459839,0.479829,0.479829,0.519809,0.499819,0.479829,0.519809,0.599768,0.579778,0.579778,0.579778,0.579778,0.579778,0.579778,0.619758,0.659738,0.679728,0.659738,0.699718,0.639748,0.639748,0.719707,0.659738,0.699718,0.659738,0.679728,0.659738,0.759687,0.879627,0.939596,0.999566,0.939596,0.839647,0.779677,0.819657,0.759687,0.839647,0.899616,1.01956,1.43934,2.07902,1.63924,1.01956,1.45933,1.3194,1.07953,0.879627,0.899616,0.919606,0.959586,0.979576,0.999566,1.01956,1.07953,1.09952,1.09952,1.09952,1.27942,1.35938,1.43934,1.53929,1.67922,1.69921,1.79916,2.23894,3.45832,2.21895,1.97907,2.27892,1.87912,1.99906,1.93909,1.73919,2.01905,2.17897,2.05903,1.61925,1.45933,1.33939,1.37937,1.63924,1.15948,1.3194,1.43934,1.33939,1.43934,1.41935,1.59926,1.75918,1.89911,1.55928,1.21945,1.25943,1.43934,1.23944,1.29941,1.19946,1.17947,1.13949,1.07953,1.15948,1.17947,1.15948,1.1195,1.15948,1.15948,1.15948,1.15948,1.19946,1.17947,1.19946,1.21945,1.21945,1.17947,1.19946,1.19946,1.21945,1.21945,1.21945,1.21945
2.99855,3.35837,1.81915,0.120011,-0.459695,-0.419716,-0.179837,0.679728,1.67922,-0.379736,3.51829,-0.439705,0.499819,0.23995,0.0200617,-0.0798876,-0.139857,-0.0998775,-0.0798876,-0.219817,1.13949,3.39835,-0.279786,0.399869,0.579778,0.399869,0.639748,1.5193,2.23894,2.85862,2.35888,2.53879,2.25893,1.3194,0.29992,-0.0199181,-0.119867,0.479829,1.49931,1.05954,0.999566,2.09901,0.699718,-0.0199181,-0.259797,-0.319766,-0.379736,-0.359746,-0.359746,-0.339756,-0.299776,-0.279786,-0.279786,-0.259797,-0.199827,-0.159847,-0.139857,-0.139857,-0.119867,-0.159847,-0.179837,-0.199827,-0.219817,-0.219817,-0.219817,-0.0399079,0.939596,1.59926,1.79916,1.87912,2.119,2.119,0.719707,0.679728,0.639748,0.35989,-0.0598978,7.18832e-05,-0.0199181,-0.0598978,-0.0998775,-0.139857,-0.0798876,-0.0399079,-0.0998775,-0.199827,-0.159847,-0.139857,-0.119867,-0.0998775,-0.119867,-0.179837,-0.219817,-0.199827,-0.139857,-0.159847,-0.159847,-0.179837,-0.159847,-0.159847,-0.119867,-0.0998775,-0.0798876,-0.0399079,-0.0199181,0.0400516,0.0400516,-0.119867,-0.119867,-0.0998775,-0.0598978,-0.0598978,-0.0399079,-0.0399079,-0.0399079,-0.0598978,-0.0598978,-0.0399079,-0.0199181,-0.0199181,-0.0199181,-0.0199181,-0.0199181,-0.0199181,7.18832e-05,7.18832e-05,7.18832e-05,0.0200617,0.0200617,0.0400516,0.0600414,0.0800314,0.0800314,0.0800314,0.0800314,0.0800314,0.100021,0.140001,0.25994,0.35989,0.539799,0.639748,0.599768,0.819657,1.35938,1.39936,1.45933,1.5193,1.61925,1.75918,1.89911,1.89911,1.79916,1.67922,1.25943,1.13949,0.3399,0.3399,0.31991,0.31991,0.35989,0.37988,0.399869,0.399869,0.399869,0.419859,0.419859,0.419859,0.439849,0.439849,0.479829,0.459839,0.439849,0.439849,0.419859,0.439849,0.459839,0.439849,0.439849,0.459839,0.459839,0.459839,0.479829,0.499819,0.499819,0.499819,0.539799,0.579778,0.579778,0.579778,0.519809,0.539799,0.579778,0.579778,0.619758,0.659738,0.679728,0.719707,0.619758,0.679728,0.739697,0.679728,0.619758,0.619758,0.639748,0.639748,0.619758,0.679728,0.699718,0.819657,0.839647,0.899616,0.759687,0.859637,0.839647,0.839647,0.899616,0.959586,1.01956,1.59926,1.7192,1.77917,1.63924,1.37937,1.07953,0.959586,0.979576,0.979576,0.979576,0.999566,0.999566,0.999566,1.01956,1.07953,1.1195,1.1195,1.09952,1.09952,1.1195,1.17947,1.29941,1.41935,1.63924,2.03904,2.61875,2.87861,2.05903,1.55928,1.73919,1.81915,1.75918,1.87912,1.97907,2.09901,2.13899,2.7187,1.99906,1.41935,1.27942,1.29941,1.65923,1.75918,1.47932,1.43934,1.39936,1.41935,1.43934,1.43934,1.55928,1.37937,1.07953,1.19946,1.19946,1.13949,1.23944,1.09952,1.05954,1.07953,1.05954,1.07953,1.07953,1.13949,1.13949,1.1195,1.1195,1.13949,1.13949,1.15948,1.17947,1.15948,1.17947,1.19946,1.19946,1.17947,1.19946,1.19946,1.21945,1.21945,1.21945,1.21945
0.879627,0.879627,0.459839,-0.199827,-0.439705,-0.439705,-0.479685,0.0400516,-0.479685,0.140001,-0.459695,-0.439705,-0.0199181,7.18832e-05,-0.159847,-0.239807,-0.299776,-0.239807,-0.259797,-0.279786,0.439849,-0.299776,-0.259797,-0.359746,-0.419716,-0.259797,-0.219817,0.899616,2.25893,2.53879,2.37887,2.21895,2.03904,1.05954,0.120011,-0.159847,-0.0998775,-0.219817,3.79815,1.45933,1.73919,-0.219817,-0.219817,-0.159847,-0.399726,-0.299776,-0.359746,-0.339756,-0.299776,-0.279786,-0.259797,-0.299776,-0.319766,-0.279786,-0.219817,-0.139857,-0.139857,-0.139857,-0.159847,-0.219817,-0.139857,-0.219817,-0.199827,-0.199827,-0.199827,-0.0998775,0.899616,1.7192,1.65923,1.49931,1.25943,2.49881,1.39936,0.619758,0.799667,0.559788,-0.0798876,0.0800314,0.0800314,-0.0399079,-0.0798876,-0.0798876,-0.0998775,-0.0998775,-0.0798876,-0.179837,-0.159847,-0.159847,-0.139857,-0.119867,-0.139857,-0.119867,-0.0199181,0.29992,-0.179837,-0.119867,-0.139857,-0.159847,-0.159847,-0.139857,-0.119867,-0.119867,-0.119867,-0.159847,-0.0598978,-0.0199181,-0.0598978,-0.0998775,-0.0798876,-0.0798876,-0.0399079,-0.0598978,-0.0399079,-0.0598978,-0.0798876,-0.0798876,-0.0598978,-0.0598978,-0.0598978,-0.0598978,-0.0399079,-0.0199181,-0.0199181,-0.0199181,7.18832e-05,7.18832e-05,7.18832e-05,0.0200617,0.0200617,0.0400516,0.0600414,0.0600414,0.0600414,0.0600414,0.0800314,0.0800314,0.100021,0.120011,0.29992,0.539799,0.979576,1.21945,1.25943,1.3194,1.35938,1.39936,1.41935,1.43934,1.49931,1.55928,1.77917,1.5193,1.57927,1.13949,1.07953,0.899616,0.699718,0.599768,0.439849,0.3399,0.3399,0.37988,0.399869,0.399869,0.399869,0.419859,0.419859,0.419859,0.439849,0.439849,0.459839,0.479829,0.459839,0.439849,0.419859,0.419859,0.419859,0.439849,0.439849,0.439849,0.439849,0.459839,0.459839,0.479829,0.499819,0.519809,0.539799,0.559788,0.499819,0.499819,0.559788,0.579778,0.639748,0.679728,0.659738,0.639748,0.599768,0.639748,0.639748,0.679728,0.699718,0.679728,0.619758,0.639748,0.639748,0.659738,0.699718,0.659738,0.659738,0.659738,0.699718,0.779677,0.679728,0.739697,0.899616,0.879627,0.899616,0.919606,0.899616,1.29941,1.43934,1.7192,2.03904,0.879627,1.07953,1.15948,1.01956,1.03955,1.05954,1.03955,0.999566,0.979576,0.979576,1.05954,1.13949,1.1195,1.07953,1.05954,1.05954,1.07953,1.09952,1.13949,1.15948,1.67922,2.17897,2.29891,1.87912,1.9191,1.87912,1.83914,1.81915,1.85913,1.95908,2.13899,2.47882,1.89911,1.49931,1.17947,1.21945,1.25943,1.85913,1.43934,1.35938,1.37937,1.43934,1.37937,1.23944,1.17947,0.999566,1.1195,1.05954,1.03955,1.1195,1.13949,1.15948,1.13949,1.05954,1.07953,1.05954,1.07953,1.07953,1.09952,1.1195,1.1195,1.1195,1.1195,1.13949,1.15948,1.17947,1.15948,1.17947,1.19946,1.19946,1.17947,1.19946,1.19946,1.21945,1.21945,1.21945,1.21945
-0.599625,-0.479685,-0.339756,-0.459695,-0.539655,-0.439705,-0.519665,-0.279786,-0.479685,0.0600414,0.35989,-0.0998775,-0.179837,-0.259797,-0.419716,-0.459695,-0.399726,-0.439705,-0.239807,-0.359746,0.0600414,0.23995,-0.0798876,-0.179837,-0.199827,-0.299776,-0.259797,0.539799,1.97907,2.119,2.45883,2.21895,1.29941,0.479829,-0.179837,-0.199827,-0.259797,-0.319766,1.7192,2.39886,1.97907,-0.219817,0.199971,-0.119867,-0.319766,-0.339756,-0.319766,-0.279786,-0.219817,-0.219817,-0.259797,-0.299776,-0.319766,-0.319766,-0.279786,-0.219817,-0.159847,-0.139857,-0.139857,-0.0798876,-0.219817,-0.219817,-0.179837,-0.199827,-0.259797,-0.239807,0.919606,1.75918,1.75918,1.7192,2.19896,1.9191,1.67922,0.859637,1.17947,1.1195,0.479829,0.140001,-0.0998775,-0.0598978,-0.0598978,-0.0399079,0.0200617,-0.0798876,-0.179837,-0.159847,-0.159847,-0.159847,-0.119867,-0.0998775,-0.0598978,-0.0998775,-0.199827,0.0800314,-0.0798876,-0.0998775,-0.0998775,-0.119867,-0.119867,-0.119867,-0.119867,-0.139857,-0.139857,-0.139857,-0.0598978,-0.0998775,-0.0998775,-0.0798876,-0.0598978,-0.0598978,-0.0399079,-0.0598978,-0.0798876,-0.0798876,-0.0998775,-0.0798876,-0.0598978,-0.0598978,-0.0598978,-0.0598978,-0.0399079,-0.0199181,-0.0199181,-0.0199181,7.18832e-05,7.18832e-05,7.18832e-05,0.0200617,0.0200617,0.0400516,0.0600414,0.0600414,0.0600414,0.0600414,0.0800314,0.100021,0.120011,0.140001,0.140001,0.140001,0.539799,0.899616,0.699718,0.839647,1.33939,1.37937,1.39936,1.41935,1.43934,1.49931,1.55928,1.59926,1.13949,0.899616,0.25994,0.559788,0.539799,0.499819,0.399869,0.3399,0.3399,0.3399,0.3399,0.3399,0.37988,0.419859,0.419859,0.419859,0.419859,0.37988,0.439849,0.439849,0.439849,0.439849,0.419859,0.419859,0.419859,0.419859,0.419859,0.419859,0.439849,0.439849,0.459839,0.459839,0.499819,0.499819,0.499819,0.559788,0.499819,0.539799,0.519809,0.579778,0.559788,0.599768,0.659738,0.639748,0.599768,0.599768,0.599768,0.619758,0.639748,0.659738,0.639748,0.639748,0.639748,0.659738,0.639748,0.639748,0.619758,0.659738,0.699718,0.819657,0.959586,0.859637,0.899616,0.899616,0.979576,0.879627,0.859637,0.859637,0.959586,1.3194,1.55928,0.959586,1.03955,1.15948,0.859637,1.19946,1.05954,1.05954,0.939596,0.939596,0.959586,1.05954,1.13949,1.1195,1.07953,1.03955,1.03955,1.03955,1.05954,1.15948,1.21945,1.17947,1.65923,2.03904,1.9191,1.89911,1.63924,1.25943,1.49931,1.61925,1.5193,0.999566,1.03955,1.03955,1.15948,1.19946,1.19946,1.17947,1.21945,1.29941,1.07953,1.21945,1.19946,1.17947,1.07953,1.03955,0.979576,1.01956,0.999566,1.03955,1.05954,1.01956,1.05954,1.07953,1.05954,1.05954,1.05954,1.07953,1.07953,1.07953,1.09952,1.09952,1.1195,1.1195,1.13949,1.15948,1.15948,1.15948,1.17947,1.19946,1.19946,1.17947,1.19946,1.19946,1.17947,1.17947,1.17947,1.21945
-0.639604,-0.759544,-0.559645,-0.499675,-0.519665,-0.479685,-0.499675,-0.459695,-0.479685,7.18832e-05,-0.279786,-0.359746,-0.379736,-0.479685,-0.479685,-0.499675,-0.439705,-0.379736,-0.319766,-0.359746,-0.219817,-0.219817,-0.219817,-0.239807,-0.239807,-0.259797,-0.239807,0.439849,0.719707,1.01956,-0.219817,0.599768,-0.119867,-0.179837,-0.299776,-0.259797,-0.299776,0.419859,1.95908,1.87912,1.95908,1.49931,0.599768,-0.219817,-0.299776,-0.219817,-0.279786,-0.239807,-0.199827,-0.219817,-0.259797,-0.319766,-0.339756,-0.339756,-0.359746,-0.299776,-0.259797,-0.219817,-0.139857,-0.139857,-0.219817,-0.0199181,7.18832e-05,-0.159847,-0.259797,-0.0998775,1.05954,1.77917,1.7192,1.47932,1.39936,1.7192,0.959586,0.919606,1.07953,0.819657,0.419859,0.100021,-0.0399079,-0.0798876,-0.119867,-0.0598978,-0.0798876,-0.0798876,-0.179837,-0.139857,-0.119867,-0.0998775,-0.119867,-0.139857,-0.219817,-0.199827,-0.159847,0.0600414,-0.0399079,-0.0598978,-0.0598978,-0.0798876,-0.119867,-0.119867,-0.0998775,-0.0998775,-0.0798876,-0.0399079,0.0800314,-0.0798876,-0.0199181,0.0400516,-0.0199181,-0.0399079,-0.0598978,-0.0998775,-0.119867,-0.0998775,-0.0998775,-0.0798876,-0.0598978,-0.0598978,-0.0598978,-0.0598978,-0.0399079,-0.0199181,-0.0199181,-0.0199181,7.18832e-05,-0.0199181,7.18832e-05,0.0200617,0.0200617,0.0400516,0.0600414,0.0400516,0.0400516,0.0600414,0.0800314,0.100021,0.120011,0.140001,0.25994,0.439849,0.759687,0.939596,1.1195,1.15948,0.859637,0.979576,0.999566,0.999566,1.41935,1.29941,1.29941,1.23944,1.39936,0.999566,0.619758,0.27993,0.27993,0.27993,0.31991,0.31991,0.31991,0.3399,0.3399,0.3399,0.3399,0.37988,0.37988,0.419859,0.399869,0.399869,0.37988,0.399869,0.439849,0.439849,0.439849,0.419859,0.419859,0.419859,0.419859,0.419859,0.439849,0.439849,0.459839,0.479829,0.459839,0.479829,0.519809,0.519809,0.499819,0.499819,0.559788,0.559788,0.579778,0.639748,0.599768,0.679728,0.699718,0.499819,0.559788,0.619758,0.619758,0.659738,0.639748,0.659738,0.659738,0.659738,0.659738,0.679728,0.719707,0.739697,0.759687,0.879627,0.919606,0.979576,0.919606,0.919606,0.939596,0.899616,0.879627,0.799667,1.15948,1.05954,0.959586,0.979576,0.919606,0.999566,0.839647,1.01956,1.1195,1.05954,0.899616,0.919606,0.959586,1.07953,1.1195,1.1195,1.05954,1.03955,1.01956,1.01956,1.03955,1.13949,1.15948,1.15948,1.29941,1.25943,1.61925,1.7192,1.45933,1.29941,1.23944,1.21945,1.21945,0.999566,1.05954,1.09952,1.15948,1.09952,1.07953,1.05954,1.13949,1.07953,1.03955,1.05954,0.939596,0.979576,0.939596,0.979576,0.959586,0.979576,0.979576,0.979576,0.979576,0.979576,1.01956,1.01956,1.03955,1.05954,1.05954,1.07953,1.07953,1.07953,1.07953,1.07953,1.09952,1.1195,1.1195,1.13949,1.15948,1.15948,1.17947,1.17947,1.19946,1.17947,1.17947,1.17947,1.17947,1.17947,1.17947,1.19946
-0.699574,-0.679584,-0.659594,-0.639604,-0.579635,-0.559645,-0.559645,-0.579635,-0.539655,-0.639604,-0.559645,-0.519665,-0.519665,-0.519665,-0.579635,-0.539655,-0.459695,-0.419716,-0.399726,-0.399726,-0.479685,-0.419716,-0.379736,-0.419716,-0.379736,-0.359746,-0.239807,-0.0998775,0.0600414,-0.239807,-0.159847,-0.379736,-0.319766,-0.299776,-0.319766,-0.319766,0.399869,3.17846,3.15847,2.97856,2.53879,3.2984,-0.259797,-0.319766,-0.259797,-0.299776,-0.279786,-0.239807,-0.179837,-0.259797,-0.259797,-0.339756,-0.339756,-0.359746,-0.379736,-0.379736,-0.319766,-0.219817,-0.139857,-0.119867,-0.179837,-0.139857,-0.119867,-0.0798876,-0.239807,0.0400516,1.01956,2.03904,1.33939,1.37937,1.37937,1.1195,0.919606,1.03955,0.439849,0.35989,0.159991,0.0400516,-0.0598978,-0.0399079,-0.0598978,-0.0598978,-0.0598978,-0.0798876,-0.159847,-0.139857,-0.0998775,-0.0998775,-0.0998775,-0.0998775,-0.0399079,0.100021,7.18832e-05,0.0400516,7.18832e-05,-0.0199181,-0.0199181,-0.0798876,-0.139857,-0.119867,-0.0998775,-0.0798876,-0.0798876,-0.0998775,-0.0998775,-0.0399079,-0.0199181,7.18832e-05,-0.0399079,-0.0199181,-0.0598978,-0.139857,-0.119867,-0.0998775,-0.0998775,-0.0798876,-0.0598978,-0.0598978,-0.0598978,-0.0598978,-0.0399079,-0.0199181,-0.0399079,-0.0399079,-0.0399079,-0.0399079,-0.0199181,-0.0199181,7.18832e-05,7.18832e-05,0.0200617,0.0200617,0.0200617,0.0400516,0.0600414,0.100021,0.120011,0.159991,0.219961,0.479829,0.799667,0.819657,0.999566,1.1195,1.27942,1.3194,1.33939,1.35938,1.35938,1.3194,1.09952,0.959586,1.01956,0.839647,0.499819,0.31991,0.31991,0.27993,0.27993,0.27993,0.29992,0.31991,0.31991,0.3399,0.3399,0.35989,0.37988,0.399869,0.399869,0.399869,0.399869,0.399869,0.419859,0.439849,0.439849,0.419859,0.419859,0.399869,0.419859,0.419859,0.419859,0.459839,0.439849,0.439849,0.419859,0.479829,0.519809,0.499819,0.459839,0.479829,0.519809,0.519809,0.559788,0.519809,0.599768,0.679728,0.619758,0.579778,0.579778,0.639748,0.659738,0.659738,0.659738,0.679728,0.699718,0.659738,0.739697,0.759687,0.859637,0.959586,0.859637,0.899616,0.899616,0.899616,0.899616,0.899616,0.919606,0.899616,0.859637,0.899616,1.15948,0.899616,0.899616,0.839647,0.819657,0.899616,0.899616,0.919606,1.09952,1.07953,1.01956,0.999566,0.999566,1.03955,1.07953,1.05954,1.01956,1.05954,1.01956,1.05954,0.999566,1.1195,1.15948,1.17947,1.21945,1.23944,1.39936,1.3194,1.23944,1.09952,1.05954,0.979576,0.959586,0.979576,0.999566,1.01956,0.919606,1.01956,0.939596,1.01956,0.879627,0.919606,0.979576,0.959586,0.939596,0.919606,0.939596,0.939596,0.959586,0.959586,0.939596,0.959586,0.979576,0.979576,1.01956,1.01956,1.03955,1.05954,1.05954,1.03955,1.03955,1.03955,1.07953,1.07953,1.07953,1.1195,1.1195,1.13949,1.15948,1.15948,1.15948,1.15948,1.13949,1.15948,1.15948,1.15948,1.17947,1.15948,1.15948,1.15948
-0.679584,-0.859493,-0.759544,-0.719564,-0.659594,-0.619614,-0.619614,-0.619614,-0.659594,-0.639604,-0.559645,-0.539655,-0.539655,-0.539655,-0.559645,-0.539655,-0.499675,-0.459695,-0.499675,-0.479685,-0.479685,-0.479685,-0.519665,-0.539655,-0.539655,-0.539655,-0.499675,-0.419716,-0.299776,-0.219817,-0.259797,-0.299776,-0.259797,-0.419716,-0.399726,-0.319766,-0.439705,-0.419716,0.579778,1.63924,0.959586,1.27942,-0.399726,-0.199827,-0.219817,-0.299776,-0.279786,-0.259797,-0.259797,-0.299776,-0.339756,-0.319766,-0.379736,-0.379736,-0.399726,-0.399726,-0.359746,-0.259797,-0.199827,-0.159847,-0.299776,-0.119867,-0.0598978,-0.159847,-0.199827,0.0600414,-0.279786,1.03955,1.17947,1.1195,1.39936,1.39936,2.63874,-0.0598978,0.439849,-0.119867,7.18832e-05,-0.0199181,-0.0399079,-0.0598978,-0.0598978,-0.0399079,-0.0199181,-0.0399079,-0.0798876,-0.0798876,-0.0598978,-0.0798876,-0.0998775,-0.139857,-0.0598978,0.0200617,7.18832e-05,0.0200617,7.18832e-05,-0.0199181,-0.0598978,-0.119867,-0.139857,-0.119867,-0.0998775,-0.0998775,-0.0998775,-0.0998775,-0.0598978,-0.0598978,-0.0598978,-0.0798876,-0.0998775,-0.139857,-0.139857,-0.139857,-0.119867,-0.0998775,-0.0998775,-0.0798876,-0.0598978,-0.0598978,-0.0798876,-0.0798876,-0.0598978,-0.0399079,-0.0598978,-0.0598978,-0.0399079,-0.0598978,-0.0399079,-0.0399079,-0.0199181,-0.0199181,7.18832e-05,7.18832e-05,0.0200617,0.0400516,0.0400516,0.0600414,0.0800314,0.0800314,0.0800314,0.199971,0.499819,0.619758,0.859637,1.01956,1.15948,1.21945,1.29941,1.3194,1.27942,0.939596,0.799667,0.219961,0.219961,0.219961,0.29992,0.27993,0.27993,0.27993,0.29992,0.29992,0.29992,0.29992,0.29992,0.31991,0.3399,0.35989,0.35989,0.37988,0.37988,0.35989,0.35989,0.399869,0.399869,0.37988,0.419859,0.419859,0.419859,0.399869,0.399869,0.399869,0.419859,0.419859,0.439849,0.439849,0.419859,0.419859,0.479829,0.499819,0.479829,0.459839,0.479829,0.499819,0.519809,0.579778,0.619758,0.439849,0.479829,0.519809,0.519809,0.639748,0.679728,0.679728,0.679728,0.719707,0.739697,0.739697,0.779677,0.759687,0.779677,0.799667,0.899616,0.899616,0.839647,0.859637,0.879627,0.899616,0.899616,0.879627,0.859637,0.939596,1.07953,1.01956,0.959586,0.899616,0.859637,0.899616,0.959586,1.07953,1.35938,1.29941,1.13949,1.01956,0.999566,0.999566,0.979576,0.939596,0.979576,0.959586,0.959586,0.979576,0.979576,1.05954,1.09952,1.1195,1.23944,1.1195,1.05954,0.959586,0.919606,0.919606,0.919606,0.859637,0.779677,0.859637,0.859637,0.899616,0.919606,0.939596,0.959586,0.959586,0.879627,0.919606,0.959586,0.899616,0.939596,0.919606,0.939596,0.919606,0.939596,0.959586,0.939596,0.959586,0.979576,0.979576,0.979576,0.979576,1.01956,0.999566,1.03955,1.03955,1.03955,1.05954,1.07953,1.07953,1.07953,1.1195,1.1195,1.13949,1.13949,1.13949,1.13949,1.15948,1.13949,1.13949,1.13949,1.15948,1.17947,1.17947,1.17947,1.17947
-0.819513,-0.779533,-0.759544,-0.719564,-0.699574,-0.699574,-0.659594,-0.619614,-0.619614,-0.639604,-0.579635,-0.599625,-0.599625,-0.619614,-0.619614,-0.619614,-0.619614,-0.559645,-0.579635,-0.559645,-0.559645,-0.559645,-0.519665,-0.599625,-0.559645,-0.559645,-0.559645,-0.519665,-0.499675,-0.419716,-0.379736,-0.439705,-0.259797,-0.459695,-0.459695,-0.439705,-0.439705,-0.499675,-0.479685,1.63924,3.73818,0.759687,-0.219817,-0.459695,-0.339756,-0.359746,-0.379736,-0.339756,-0.339756,-0.339756,-0.339756,-0.319766,-0.359746,-0.379736,-0.419716,-0.419716,-0.379736,-0.239807,-0.279786,-0.199827,-0.319766,-0.119867,-0.0998775,-0.139857,-0.139857,-0.0598978,-0.279786,0.799667,1.13949,0.899616,1.53929,1.63924,1.1195,-0.139857,0.159991,0.0400516,0.0200617,-0.0199181,-0.0399079,-0.0199181,-0.0199181,7.18832e-05,7.18832e-05,0.0200617,7.18832e-05,0.0200617,-0.0798876,-0.0598978,-0.0399079,-0.0199181,-0.179837,-0.0598978,7.18832e-05,7.18832e-05,-0.0399079,-0.0399079,-0.0598978,-0.139857,-0.139857,-0.119867,-0.0998775,-0.0798876,-0.0798876,-0.0798876,-0.119867,-0.139857,-0.139857,-0.159847,-0.159847,-0.159847,-0.159847,-0.139857,-0.119867,-0.0998775,-0.0998775,-0.0798876,-0.0998775,-0.0998775,-0.0998775,-0.0998775,-0.0798876,-0.0798876,-0.0798876,-0.0598978,-0.0598978,-0.0598978,-0.0399079,-0.0399079,-0.0199181,-0.0199181,7.18832e-05,7.18832e-05,0.0200617,0.0400516,0.0400516,0.0400516,0.0600414,0.0600414,0.0600414,0.0800314,0.0800314,0.0800314,0.31991,0.739697,0.959586,1.09952,1.19946,1.03955,0.919606,0.939596,0.679728,0.439849,0.439849,0.219961,0.219961,0.219961,0.219961,0.25994,0.25994,0.29992,0.29992,0.29992,0.29992,0.29992,0.31991,0.3399,0.37988,0.35989,0.35989,0.3399,0.35989,0.37988,0.37988,0.37988,0.37988,0.37988,0.399869,0.399869,0.399869,0.399869,0.419859,0.419859,0.419859,0.419859,0.419859,0.439849,0.439849,0.479829,0.459839,0.459839,0.479829,0.499819,0.539799,0.499819,0.439849,0.419859,0.459839,0.499819,0.519809,0.539799,0.579778,0.619758,0.679728,0.799667,0.739697,0.759687,0.839647,0.659738,0.699718,0.719707,0.799667,0.779677,0.779677,0.859637,0.899616,0.919606,0.879627,0.839647,0.799667,0.879627,1.03955,1.07953,0.999566,0.839647,0.859637,0.899616,0.939596,0.959586,1.27942,1.29941,1.21945,1.05954,0.939596,0.919606,0.879627,0.839647,0.879627,0.899616,0.859637,0.879627,0.919606,0.919606,0.959586,1.09952,0.999566,0.879627,0.839647,0.859637,0.799667,0.759687,0.779677,0.799667,0.779677,0.799667,0.839647,0.839647,0.859637,0.879627,0.879627,0.899616,0.899616,0.899616,0.919606,0.899616,0.939596,0.919606,0.919606,0.919606,0.919606,0.939596,0.939596,0.939596,0.959586,0.979576,0.979576,0.979576,0.999566,0.999566,1.03955,1.03955,1.03955,1.05954,1.05954,1.07953,1.07953,1.1195,1.1195,1.1195,1.1195,1.1195,1.13949,1.15948,1.13949,1.13949,1.13949,1.15948,1.17947,1.17947,1.17947,1.17947
-0.759544,-0.759544,-0.739554,-0.719564,-0.699574,-0.699574,-0.659594,-0.639604,-0.639604,-0.639604,-0.639604,-0.659594,-0.679584,-0.679584,-0.639604,-0.619614,-0.599625,-0.599625,-0.579635,-0.579635,-0.599625,-0.619614,-0.599625,-0.599625,-0.579635,-0.579635,-0.579635,-0.559645,-0.539655,-0.559645,-0.539655,-0.519665,-0.479685,-0.559645,-0.539655,-0.519665,-0.499675,-0.499675,-0.259797,0.439849,-0.499675,-0.479685,-0.459695,-0.459695,-0.439705,-0.439705,-0.459695,-0.419716,-0.439705,-0.399726,-0.359746,-0.359746,-0.339756,-0.359746,-0.399726,-0.399726,-0.359746,-0.239807,-0.339756,-0.159847,-0.259797,-0.159847,-0.179837,-0.179837,-0.179837,-0.179837,-0.259797,0.120011,-0.319766,-0.299776,0.739697,1.17947,0.399869,-0.0798876,-0.0598978,-0.0798876,-0.0798876,-0.0399079,-0.0199181,7.18832e-05,7.18832e-05,7.18832e-05,7.18832e-05,0.0400516,0.0600414,0.0800314,7.18832e-05,-0.0199181,-0.0199181,-0.0399079,-0.139857,-0.119867,0.0600414,7.18832e-05,-0.0598978,-0.0399079,-0.0998775,-0.139857,-0.139857,-0.119867,-0.0998775,-0.0998775,-0.0598978,-0.139857,-0.159847,-0.179837,-0.179837,-0.159847,-0.159847,-0.159847,-0.159847,-0.139857,-0.119867,-0.119867,-0.119867,-0.0998775,-0.139857,-0.119867,-0.0998775,-0.0998775,-0.0798876,-0.0798876,-0.0798876,-0.0598978,-0.0598978,-0.0598978,-0.0399079,-0.0399079,-0.0199181,-0.0199181,7.18832e-05,7.18832e-05,0.0200617,0.0400516,0.0200617,0.0400516,0.0600414,0.0600414,0.0600414,0.140001,0.120011,0.159991,0.3399,0.699718,0.619758,0.819657,0.919606,0.959586,0.999566,0.839647,0.659738,0.37988,0.27993,0.23995,0.23995,0.23995,0.219961,0.219961,0.219961,0.25994,0.23995,0.29992,0.29992,0.29992,0.29992,0.29992,0.31991,0.3399,0.37988,0.35989,0.3399,0.3399,0.35989,0.35989,0.35989,0.37988,0.37988,0.37988,0.399869,0.399869,0.399869,0.399869,0.419859,0.439849,0.439849,0.439849,0.439849,0.479829,0.459839,0.459839,0.439849,0.479829,0.519809,0.419859,0.419859,0.439849,0.439849,0.479829,0.499819,0.619758,0.599768,0.619758,0.619758,0.719707,0.699718,0.679728,0.679728,0.679728,0.679728,0.599768,0.679728,0.739697,0.699718,0.839647,0.979576,0.979576,0.819657,0.799667,0.779677,0.859637,1.17947,1.23944,1.15948,0.879627,0.839647,0.859637,0.879627,0.839647,1.09952,1.19946,1.33939,0.879627,0.839647,0.839647,0.819657,0.779677,0.819657,0.819657,0.819657,0.799667,0.819657,0.819657,0.879627,0.759687,0.839647,0.819657,0.779677,0.719707,0.719707,0.739697,0.759687,0.779677,0.779677,0.799667,0.819657,0.819657,0.859637,0.859637,0.899616,0.919606,0.919606,0.919606,0.919606,0.899616,0.919606,0.919606,0.899616,0.899616,0.919606,0.919606,0.899616,0.919606,0.939596,0.939596,0.959586,0.979576,0.979576,0.999566,1.01956,1.01956,1.03955,1.03955,1.03955,1.07953,1.07953,1.1195,1.1195,1.1195,1.1195,1.1195,1.1195,1.09952,1.1195,1.1195,1.13949,1.15948,1.15948,1.17947,1.17947,1.17947
-0.779533,-0.759544,-0.739554,-0.719564,-0.699574,-0.699574,-0.679584,-0.699574,-0.699574,-0.679584,-0.699574,-0.679584,-0.679584,-0.659594,-0.659594,-0.639604,-0.619614,-0.639604,-0.639604,-0.639604,-0.639604,-0.619614,-0.599625,-0.599625,-0.599625,-0.599625,-0.599625,-0.579635,-0.579635,-0.559645,-0.579635,-0.599625,-0.579635,-0.559645,-0.539655,-0.519665,-0.539655,-0.559645,-0.379736,-0.519665,-0.499675,-0.499675,-0.539655,-0.519665,-0.479685,-0.479685,-0.459695,-0.439705,-0.419716,-0.399726,-0.339756,-0.199827,-0.139857,-0.419716,-0.379736,-0.359746,-0.339756,-0.279786,-0.279786,-0.239807,-0.239807,-0.239807,-0.279786,-0.319766,-0.319766,-0.279786,-0.259797,-0.179837,-0.179837,-0.299776,0.27993,0.25994,-0.0798876,-0.199827,-0.179837,-0.119867,-0.139857,-0.0399079,7.18832e-05,0.0200617,7.18832e-05,0.0200617,0.0800314,0.0800314,0.499819,0.140001,0.0400516,-0.0199181,0.120011,0.0200617,-0.119867,-0.0798876,-0.0199181,-0.0399079,-0.0399079,-0.0798876,-0.0998775,-0.119867,-0.119867,-0.119867,-0.0998775,-0.0998775,-0.139857,-0.199827,-0.199827,-0.179837,-0.179837,-0.159847,-0.159847,-0.159847,-0.159847,-0.159847,-0.139857,-0.159847,-0.139857,-0.139857,-0.139857,-0.119867,-0.0998775,-0.0998775,-0.0798876,-0.0798876,-0.0798876,-0.0598978,-0.0598978,-0.0598978,-0.0399079,-0.0399079,-0.0199181,-0.0199181,7.18832e-05,7.18832e-05,7.18832e-05,0.0200617,7.18832e-05,0.0200617,0.0200617,0.0200617,0.0600414,0.0800314,0.0800314,0.120011,0.3399,0.639748,0.739697,0.759687,0.719707,0.25994,0.140001,0.140001,0.140001,0.179981,0.199971,0.199971,0.199971,0.199971,0.219961,0.219961,0.219961,0.219961,0.23995,0.27993,0.25994,0.29992,0.29992,0.29992,0.29992,0.27993,0.3399,0.3399,0.3399,0.3399,0.3399,0.35989,0.35989,0.37988,0.37988,0.37988,0.399869,0.399869,0.399869,0.399869,0.439849,0.499819,0.459839,0.459839,0.439849,0.439849,0.479829,0.459839,0.439849,0.419859,0.419859,0.419859,0.419859,0.419859,0.459839,0.499819,0.559788,0.559788,0.579778,0.579778,0.619758,0.679728,0.639748,0.579778,0.599768,0.679728,0.659738,0.639748,0.659738,0.679728,0.619758,0.779677,0.879627,0.859637,0.779677,0.799667,0.839647,0.799667,0.839647,1.41935,1.09952,0.659738,0.679728,0.759687,0.759687,0.699718,0.979576,1.29941,1.81915,0.819657,0.819657,0.819657,0.779677,0.759687,0.759687,0.739697,0.739697,0.739697,0.719707,0.739697,0.739697,0.699718,0.739697,0.719707,0.719707,0.739697,0.739697,0.759687,0.759687,0.779677,0.799667,0.799667,0.819657,0.839647,0.859637,0.899616,0.939596,0.959586,0.939596,0.919606,0.919606,0.899616,0.899616,0.899616,0.879627,0.899616,0.919606,0.899616,0.899616,0.899616,0.919606,0.939596,0.959586,0.959586,0.959586,0.979576,0.999566,1.01956,1.03955,1.03955,1.05954,1.07953,1.07953,1.09952,1.1195,1.1195,1.09952,1.09952,1.1195,1.09952,1.1195,1.1195,1.13949,1.13949,1.13949,1.13949,1.17947,1.17947
-0.759544,-0.859493,-0.779533,-0.739554,-0.719564,-0.719564,-0.739554,-0.739554,-0.719564,-0.719564,-0.719564,-0.699574,-0.679584,-0.679584,-0.699574,-0.679584,-0.679584,-0.679584,-0.659594,-0.639604,-0.639604,-0.619614,-0.619614,-0.639604,-0.639604,-0.619614,-0.599625,-0.579635,-0.599625,-0.619614,-0.619614,-0.599625,-0.579635,-0.559645,-0.559645,-0.579635,-0.579635,-0.559645,-0.479685,-0.499675,-0.579635,-0.559645,-0.519665,-0.519665,-0.499675,-0.479685,-0.479685,-0.479685,-0.459695,-0.499675,-0.379736,-0.159847,0.25994,-0.419716,-0.319766,-0.379736,-0.419716,-0.399726,-0.379736,-0.339756,-0.319766,-0.259797,-0.299776,-0.299776,-0.279786,-0.299776,-0.339756,-0.279786,-0.299776,-0.299776,-0.259797,-0.119867,-0.119867,-0.159847,-0.159847,-0.139857,-0.119867,-0.0598978,-0.0199181,-0.0199181,-0.0399079,-0.0199181,0.0800314,2.25893,1.25943,-0.0399079,-0.0399079,-0.0199181,7.18832e-05,-0.0598978,-0.0998775,-0.0998775,-0.0598978,-0.0998775,-0.0998775,-0.119867,-0.119867,-0.119867,-0.119867,-0.119867,-0.119867,-0.139857,-0.219817,-0.219817,-0.199827,-0.179837,-0.179837,-0.159847,-0.179837,-0.179837,-0.179837,-0.179837,-0.159847,-0.159847,-0.139857,-0.139857,-0.139857,-0.119867,-0.0998775,-0.0998775,-0.0798876,-0.0798876,-0.0798876,-0.0598978,-0.0598978,-0.0598978,-0.0598978,-0.0598978,-0.0399079,-0.0399079,-0.0399079,-0.0199181,7.18832e-05,7.18832e-05,-0.0199181,-0.0199181,7.18832e-05,7.18832e-05,0.0600414,0.0400516,0.0200617,0.0200617,0.25994,0.29992,0.3399,0.479829,0.599768,0.459839,0.37988,0.35989,0.140001,0.140001,0.140001,0.140001,0.140001,0.159991,0.159991,0.179981,0.219961,0.25994,0.25994,0.25994,0.23995,0.23995,0.25994,0.29992,0.29992,0.31991,0.31991,0.29992,0.31991,0.35989,0.35989,0.35989,0.31991,0.31991,0.3399,0.37988,0.399869,0.419859,0.439849,0.399869,0.419859,0.439849,0.459839,0.459839,0.439849,0.439849,0.439849,0.439849,0.439849,0.439849,0.419859,0.419859,0.419859,0.419859,0.439849,0.459839,0.499819,0.499819,0.499819,0.519809,0.559788,0.519809,0.539799,0.559788,0.539799,0.679728,0.579778,0.579778,0.579778,0.599768,0.659738,0.739697,0.819657,0.759687,0.679728,0.759687,0.799667,0.859637,1.17947,1.77917,1.03955,0.799667,0.679728,0.639748,0.639748,0.699718,0.959586,1.65923,0.879627,0.719707,0.699718,0.699718,0.679728,0.679728,0.699718,0.679728,0.719707,0.699718,0.699718,0.679728,0.679728,0.699718,0.699718,0.719707,0.719707,0.739697,0.759687,0.779677,0.799667,0.799667,0.839647,0.859637,0.839647,0.839647,0.879627,0.899616,0.899616,0.899616,0.899616,0.879627,0.879627,0.859637,0.859637,0.879627,0.879627,0.879627,0.879627,0.879627,0.899616,0.919606,0.919606,0.939596,0.959586,0.959586,0.959586,0.979576,0.999566,0.999566,1.01956,1.03955,1.05954,1.07953,1.07953,1.07953,1.07953,1.07953,1.07953,1.07953,1.1195,1.09952,1.1195,1.1195,1.13949,1.13949,1.13949,1.1195,1.13949,1.17947
-0.859493,-0.919463,-0.819513,-0.759544,-0.739554,-0.759544,-0.759544,-0.759544,-0.739554,-0.719564,-0.719564,-0.699574,-0.679584,-0.699574,-0.719564,-0.699574,-0.699574,-0.679584,-0.659594,-0.659594,-0.659594,-0.659594,-0.659594,-0.639604,-0.639604,-0.619614,-0.619614,-0.639604,-0.639604,-0.639604,-0.619614,-0.599625,-0.579635,-0.599625,-0.599625,-0.599625,-0.579635,-0.559645,-0.539655,-0.579635,-0.579635,-0.539655,-0.519665,-0.519665,-0.539655,-0.559645,-0.559645,-0.519665,-0.499675,-0.459695,-0.459695,0.159991,-0.0199181,-0.179837,-0.339756,-0.439705,-0.459695,-0.439705,-0.419716,-0.399726,-0.339756,-0.359746,-0.359746,-0.319766,-0.279786,-0.339756,-0.339756,-0.319766,-0.299776,-0.299776,-0.259797,-0.199827,-0.179837,-0.119867,-0.119867,-0.0998775,-0.0998775,-0.0998775,0.0400516,0.0400516,-0.0399079,7.18832e-05,-0.0998775,-0.0998775,-0.0399079,-0.0399079,-0.0598978,-0.0598978,-0.0598978,-0.0998775,-0.0998775,-0.0998775,-0.119867,-0.159847,-0.179837,-0.139857,-0.139857,-0.139857,-0.159847,-0.179837,-0.199827,-0.219817,-0.219817,-0.219817,-0.199827,-0.179837,-0.179837,-0.179837,-0.199827,-0.199827,-0.179837,-0.179837,-0.159847,-0.159847,-0.139857,-0.139857,-0.139857,-0.119867,-0.0998775,-0.0998775,-0.0798876,-0.0798876,-0.0798876,-0.0798876,-0.0798876,-0.0798876,-0.0798876,-0.0798876,-0.0598978,-0.0598978,-0.0598978,-0.0399079,-0.0399079,-0.0399079,-0.0199181,-0.0199181,7.18832e-05,7.18832e-05,7.18832e-05,7.18832e-05,7.18832e-05,0.0200617,0.0200617,0.0200617,0.0400516,0.199971,0.31991,0.29992,0.23995,0.199971,0.159991,0.159991,0.159991,0.159991,0.140001,0.159991,0.159991,0.179981,0.219961,0.23995,0.25994,0.25994,0.23995,0.23995,0.23995,0.27993,0.29992,0.31991,0.31991,0.27993,0.27993,0.3399,0.37988,0.35989,0.3399,0.31991,0.31991,0.35989,0.399869,0.419859,0.419859,0.419859,0.419859,0.439849,0.439849,0.439849,0.439849,0.459839,0.439849,0.439849,0.439849,0.419859,0.419859,0.399869,0.399869,0.419859,0.419859,0.419859,0.419859,0.419859,0.439849,0.479829,0.459839,0.499819,0.519809,0.519809,0.539799,0.539799,0.479829,0.499819,0.499819,0.539799,0.619758,0.699718,0.759687,0.719707,0.719707,0.739697,0.779677,0.879627,0.939596,0.579778,0.599768,0.639748,0.599768,0.579778,0.639748,0.599768,0.619758,0.599768,0.599768,0.579778,0.639748,0.619758,0.619758,0.599768,0.639748,0.659738,0.639748,0.639748,0.659738,0.679728,0.679728,0.719707,0.739697,0.739697,0.759687,0.759687,0.779677,0.779677,0.799667,0.799667,0.799667,0.819657,0.799667,0.819657,0.839647,0.859637,0.839647,0.859637,0.839647,0.839647,0.839647,0.839647,0.859637,0.859637,0.859637,0.879627,0.879627,0.879627,0.899616,0.899616,0.899616,0.939596,0.939596,0.939596,0.959586,0.959586,0.979576,0.999566,1.01956,1.03955,1.03955,1.03955,1.03955,1.03955,1.05954,1.05954,1.05954,1.07953,1.1195,1.09952,1.09952,1.09952,1.09952,1.13949,1.13949,1.1195,1.1195,1.17947
-0.919463,-0.919463,-0.799523,-0.759544,-0.759544,-0.759544,-0.759544,-0.739554,-0.739554,-0.719564,-0.719564,-0.699574,-0.699574,-0.699574,-0.719564,-0.699574,-0.699574,-0.679584,-0.659594,-0.679584,-0.699574,-0.679584,-0.679584,-0.659594,-0.639604,-0.639604,-0.659594,-0.659594,-0.659594,-0.639604,-0.619614,-0.599625,-0.619614,-0.619614,-0.599625,-0.599625,-0.579635,-0.579635,-0.599625,-0.579635,-0.579635,-0.539655,-0.539655,-0.539655,-0.559645,-0.579635,-0.579635,-0.539655,-0.499675,-0.379736,-0.299776,-0.159847,-0.279786,-0.399726,-0.479685,-0.479685,-0.459695,-0.439705,-0.419716,-0.419716,-0.459695,-0.419716,-0.419716,-0.379736,-0.339756,-0.339756,-0.319766,-0.319766,-0.299776,-0.319766,-0.299776,-0.239807,-0.219817,-0.0598978,0.120011,-0.0598978,-0.0798876,-0.199827,-0.159847,-0.159847,-0.139857,-0.119867,-0.0399079,7.18832e-05,-0.0598978,-0.0998775,-0.119867,-0.139857,-0.119867,-0.0998775,-0.159847,-0.159847,-0.179837,-0.179837,-0.179837,-0.139857,-0.139857,-0.199827,-0.219817,-0.239807,-0.219817,-0.219817,-0.219817,-0.219817,-0.199827,-0.199827,-0.219817,-0.199827,-0.219817,-0.199827,-0.179837,-0.179837,-0.159847,-0.159847,-0.139857,-0.139857,-0.139857,-0.119867,-0.119867,-0.119867,-0.119867,-0.119867,-0.119867,-0.119867,-0.0998775,-0.0798876,-0.0798876,-0.0798876,-0.0598978,-0.0598978,-0.0598978,-0.0399079,-0.0399079,-0.0399079,-0.0199181,-0.0199181,7.18832e-05,7.18832e-05,0.0600414,7.18832e-05,0.0200617,0.0200617,0.0200617,0.0200617,0.0400516,0.0600414,0.100021,0.100021,0.100021,0.120011,0.120011,0.100021,0.100021,0.140001,0.159991,0.179981,0.159991,0.179981,0.199971,0.219961,0.25994,0.25994,0.23995,0.23995,0.23995,0.23995,0.27993,0.31991,0.3399,0.29992,0.27993,0.27993,0.31991,0.3399,0.3399,0.31991,0.31991,0.3399,0.419859,0.399869,0.419859,0.419859,0.419859,0.419859,0.419859,0.399869,0.399869,0.399869,0.459839,0.459839,0.439849,0.399869,0.37988,0.399869,0.399869,0.399869,0.399869,0.399869,0.399869,0.419859,0.439849,0.479829,0.479829,0.479829,0.479829,0.459839,0.439849,0.439849,0.459839,0.459839,0.499819,0.539799,0.579778,0.639748,0.679728,0.699718,0.699718,0.699718,0.779677,0.739697,0.739697,0.519809,0.559788,0.559788,0.539799,0.519809,0.579778,0.559788,0.559788,0.539799,0.579778,0.599768,0.579778,0.599768,0.619758,0.619758,0.619758,0.619758,0.639748,0.639748,0.659738,0.679728,0.699718,0.699718,0.719707,0.719707,0.739697,0.739697,0.739697,0.759687,0.759687,0.759687,0.779677,0.779677,0.759687,0.799667,0.799667,0.819657,0.819657,0.819657,0.799667,0.819657,0.839647,0.819657,0.839647,0.859637,0.859637,0.879627,0.879627,0.879627,0.899616,0.899616,0.899616,0.939596,0.939596,0.939596,0.959586,0.959586,0.979576,0.999566,0.999566,1.01956,1.01956,1.03955,1.03955,1.03955,1.03955,1.05954,1.05954,1.07953,1.09952,1.09952,1.09952,1.09952,1.07953,1.1195,1.13949,1.1195,1.1195,1.17947
-0.859493,-0.839503,-0.779533,-0.779533,-0.779533,-0.779533,-0.759544,-0.759544,-0.739554,-0.719564,-0.719564,-0.719564,-0.719564,-0.719564,-0.719564,-0.719564,-0.699574,-0.679584,-0.679584,-0.679584,-0.699574,-0.679584,-0.679584,-0.659594,-0.659594,-0.679584,-0.679584,-0.679584,-0.659594,-0.639604,-0.619614,-0.639604,-0.639604,-0.619614,-0.599625,-0.599625,-0.599625,-0.599625,-0.599625,-0.599625,-0.579635,-0.559645,-0.559645,-0.559645,-0.579635,-0.559645,-0.559645,-0.539655,-0.479685,-0.379736,-0.339756,-0.359746,-0.519665,-0.499675,-0.499675,-0.479685,-0.459695,-0.439705,-0.439705,-0.459695,-0.459695,-0.419716,-0.399726,-0.379736,-0.359746,-0.339756,-0.339756,-0.359746,-0.419716,-0.359746,-0.359746,-0.159847,-0.319766,-0.159847,0.0200617,-0.159847,-0.159847,-0.199827,-0.179837,-0.179837,-0.199827,-0.199827,-0.159847,-0.159847,-0.199827,-0.179837,-0.159847,-0.139857,-0.139857,-0.139857,-0.179837,-0.199827,-0.199827,-0.179837,-0.179837,-0.139857,-0.219817,-0.259797,-0.259797,-0.239807,-0.219817,-0.219817,-0.219817,-0.219817,-0.219817,-0.239807,-0.219817,-0.219817,-0.219817,-0.199827,-0.179837,-0.179837,-0.159847,-0.159847,-0.139857,-0.159847,-0.139857,-0.159847,-0.159847,-0.159847,-0.139857,-0.139857,-0.119867,-0.119867,-0.0998775,-0.0798876,-0.0798876,-0.0798876,-0.0598978,-0.0399079,-0.0598978,-0.0399079,-0.0399079,-0.0399079,-0.0199181,-0.0199181,-0.0199181,0.0200617,0.0400516,7.18832e-05,0.0200617,0.0200617,0.0200617,0.0200617,0.0400516,0.0600414,0.0600414,0.0600414,0.0600414,0.0600414,0.0600414,0.0600414,0.0800314,0.120011,0.140001,0.179981,0.159991,0.179981,0.179981,0.179981,0.219961,0.23995,0.23995,0.219961,0.23995,0.23995,0.23995,0.29992,0.31991,0.29992,0.29992,0.29992,0.29992,0.29992,0.29992,0.29992,0.31991,0.3399,0.439849,0.419859,0.419859,0.37988,0.37988,0.439849,0.419859,0.419859,0.37988,0.419859,0.439849,0.459839,0.419859,0.399869,0.37988,0.37988,0.37988,0.399869,0.399869,0.399869,0.399869,0.399869,0.419859,0.459839,0.439849,0.419859,0.419859,0.419859,0.419859,0.439849,0.439849,0.459839,0.459839,0.499819,0.539799,0.579778,0.619758,0.639748,0.599768,0.559788,0.499819,0.599768,0.659738,0.519809,0.519809,0.499819,0.539799,0.539799,0.519809,0.539799,0.559788,0.559788,0.579778,0.579778,0.579778,0.559788,0.559788,0.619758,0.599768,0.599768,0.619758,0.639748,0.639748,0.659738,0.679728,0.679728,0.699718,0.699718,0.719707,0.719707,0.739697,0.739697,0.739697,0.759687,0.759687,0.779677,0.759687,0.759687,0.779677,0.779677,0.799667,0.819657,0.819657,0.819657,0.839647,0.819657,0.839647,0.859637,0.859637,0.879627,0.879627,0.879627,0.899616,0.899616,0.899616,0.939596,0.939596,0.939596,0.959586,0.959586,0.959586,0.979576,0.999566,0.999566,1.01956,1.01956,1.01956,1.01956,1.01956,1.03955,1.05954,1.05954,1.05954,1.05954,1.09952,1.09952,1.07953,1.09952,1.1195,1.1195,1.1195,1.15948
-0.799523,-0.799523,-0.799523,-0.799523,-0.799523,-0.779533,-0.759544,-0.759544,-0.759544,-0.739554,-0.739554,-0.739554,-0.739554,-0.739554,-0.739554,-0.719564,-0.699574,-0.699574,-0.699574,-0.699574,-0.699574,-0.679584,-0.679584,-0.679584,-0.699574,-0.679584,-0.679584,-0.679584,-0.659594,-0.639604,-0.639604,-0.639604,-0.639604,-0.619614,-0.619614,-0.619614,-0.619614,-0.619614,-0.619614,-0.619614,-0.599625,-0.579635,-0.579635,-0.579635,-0.579635,-0.559645,-0.559645,-0.519665,-0.459695,-0.419716,-0.439705,-0.399726,-0.519665,-0.499675,-0.499675,-0.479685,-0.479685,-0.479685,-0.479685,-0.459695,-0.459695,-0.419716,-0.399726,-0.379736,-0.379736,-0.399726,-0.399726,-0.419716,-0.419716,-0.339756,-0.319766,-0.339756,-0.299776,-0.199827,-0.259797,-0.199827,-0.259797,-0.259797,-0.259797,-0.259797,-0.279786,-0.259797,-0.239807,-0.219817,-0.199827,-0.179837,-0.159847,-0.179837,-0.199827,-0.239807,-0.239807,-0.219817,-0.199827,-0.179837,-0.179837,-0.219817,-0.259797,-0.279786,-0.259797,-0.239807,-0.219817,-0.219817,-0.259797,-0.239807,-0.259797,-0.239807,-0.219817,-0.199827,-0.219817,-0.199827,-0.179837,-0.179837,-0.159847,-0.159847,-0.159847,-0.179837,-0.179837,-0.179837,-0.159847,-0.159847,-0.139857,-0.139857,-0.119867,-0.119867,-0.0798876,-0.0798876,-0.0798876,-0.0798876,-0.0598978,-0.0399079,-0.0598978,-0.0399079,-0.0399079,-0.0399079,-0.0199181,-0.0399079,-0.0598978,-0.0399079,-0.0199181,-0.0199181,-0.0199181,-0.0199181,-0.0199181,7.18832e-05,0.0400516,0.0600414,0.0600414,0.0600414,0.0600414,0.0600414,0.0600414,0.0600414,0.0800314,0.0800314,0.100021,0.159991,0.140001,0.179981,0.179981,0.179981,0.199971,0.199971,0.199971,0.199971,0.219961,0.23995,0.23995,0.23995,0.23995,0.25994,0.25994,0.29992,0.31991,0.27993,0.27993,0.27993,0.31991,0.3399,0.399869,0.439849,0.399869,0.399869,0.37988,0.419859,0.459839,0.419859,0.37988,0.37988,0.399869,0.459839,0.419859,0.399869,0.37988,0.37988,0.37988,0.399869,0.399869,0.399869,0.399869,0.419859,0.419859,0.439849,0.439849,0.419859,0.399869,0.399869,0.419859,0.419859,0.439849,0.459839,0.479829,0.499819,0.519809,0.559788,0.599768,0.599768,0.559788,0.539799,0.539799,0.579778,0.619758,0.519809,0.519809,0.499819,0.539799,0.539799,0.519809,0.519809,0.499819,0.479829,0.499819,0.519809,0.519809,0.539799,0.559788,0.539799,0.559788,0.579778,0.579778,0.579778,0.619758,0.619758,0.639748,0.679728,0.679728,0.699718,0.719707,0.719707,0.699718,0.739697,0.719707,0.739697,0.739697,0.759687,0.759687,0.759687,0.759687,0.779677,0.799667,0.819657,0.819657,0.819657,0.839647,0.819657,0.839647,0.859637,0.859637,0.859637,0.879627,0.879627,0.899616,0.899616,0.899616,0.919606,0.939596,0.939596,0.959586,0.959586,0.959586,0.959586,0.979576,0.999566,0.999566,0.999566,1.01956,1.01956,1.01956,1.03955,1.05954,1.05954,1.05954,1.07953,1.09952,1.09952,1.07953,1.07953,1.07953,1.13949,1.1195,1.15948
-0.799523,-0.799523,-0.799523,-0.799523,-0.799523,-0.779533,-0.759544,-0.779533,-0.779533,-0.759544,-0.759544,-0.759544,-0.759544,-0.759544,-0.759544,-0.739554,-0.719564,-0.719564,-0.719564,-0.719564,-0.699574,-0.679584,-0.679584,-0.679584,-0.699574,-0.679584,-0.679584,-0.659594,-0.639604,-0.639604,-0.639604,-0.639604,-0.639604,-0.639604,-0.619614,-0.619614,-0.619614,-0.619614,-0.619614,-0.599625,-0.599625,-0.599625,-0.599625,-0.599625,-0.579635,-0.559645,-0.559645,-0.519665,-0.499675,-0.499675,-0.499675,-0.539655,-0.519665,-0.519665,-0.499675,-0.479685,-0.479685,-0.499675,-0.479685,-0.459695,-0.459695,-0.419716,-0.419716,-0.419716,-0.419716,-0.459695,-0.439705,-0.419716,-0.419716,-0.339756,-0.319766,-0.299776,-0.299776,-0.259797,-0.239807,-0.279786,-0.359746,-0.339756,-0.319766,-0.299776,-0.279786,-0.259797,-0.219817,-0.219817,-0.199827,-0.199827,-0.199827,-0.239807,-0.259797,-0.259797,-0.239807,-0.219817,-0.199827,-0.179837,-0.219817,-0.259797,-0.279786,-0.259797,-0.259797,-0.239807,-0.219817,-0.239807,-0.259797,-0.259797,-0.259797,-0.239807,-0.219817,-0.199827,-0.199827,-0.199827,-0.179837,-0.179837,-0.199827,-0.199827,-0.199827,-0.199827,-0.179837,-0.179837,-0.159847,-0.159847,-0.139857,-0.139857,-0.119867,-0.119867,-0.0998775,-0.0998775,-0.0998775,-0.0998775,-0.0798876,-0.0798876,-0.0798876,-0.0798876,-0.0798876,-0.0598978,-0.0598978,-0.0798876,-0.0798876,-0.0598978,-0.0598978,-0.0399079,-0.0199181,-0.0399079,-0.0199181,7.18832e-05,0.0200617,0.0200617,0.0200617,0.0200617,0.0400516,0.0600414,0.0600414,0.0600414,0.0800314,0.100021,0.100021,0.100021,0.120011,0.140001,0.140001,0.179981,0.199971,0.179981,0.179981,0.179981,0.179981,0.219961,0.23995,0.25994,0.23995,0.23995,0.25994,0.29992,0.31991,0.31991,0.27993,0.27993,0.31991,0.3399,0.3399,0.3399,0.35989,0.35989,0.37988,0.35989,0.35989,0.37988,0.37988,0.37988,0.419859,0.439849,0.399869,0.37988,0.37988,0.399869,0.37988,0.35989,0.35989,0.399869,0.399869,0.419859,0.419859,0.419859,0.399869,0.419859,0.399869,0.399869,0.419859,0.419859,0.439849,0.459839,0.479829,0.499819,0.519809,0.559788,0.559788,0.579778,0.559788,0.539799,0.539799,0.579778,0.579778,0.519809,0.519809,0.519809,0.519809,0.539799,0.519809,0.519809,0.499819,0.479829,0.479829,0.499819,0.519809,0.539799,0.559788,0.539799,0.539799,0.599768,0.579778,0.579778,0.619758,0.619758,0.639748,0.679728,0.679728,0.699718,0.679728,0.679728,0.699718,0.699718,0.719707,0.719707,0.719707,0.739697,0.739697,0.739697,0.759687,0.779677,0.779677,0.799667,0.819657,0.819657,0.839647,0.819657,0.839647,0.859637,0.859637,0.859637,0.879627,0.879627,0.899616,0.899616,0.899616,0.939596,0.939596,0.939596,0.939596,0.939596,0.959586,0.959586,0.959586,0.979576,0.999566,0.979576,0.999566,1.01956,1.01956,1.03955,1.05954,1.05954,1.05954,1.07953,1.09952,1.09952,1.07953,1.09952,1.09952,1.1195,1.1195,1.15948
-0.819513,-0.819513,-0.819513,-0.819513,-0.799523,-0.779533,-0.779533,-0.799523,-0.799523,-0.779533,-0.759544,-0.759544,-0.759544,-0.759544,-0.739554,-0.739554,-0.719564,-0.719564,-0.719564,-0.719564,-0.699574,-0.699574,-0.699574,-0.699574,-0.699574,-0.679584,-0.679584,-0.659594,-0.659594,-0.659594,-0.659594,-0.659594,-0.659594,-0.639604,-0.619614,-0.619614,-0.619614,-0.619614,-0.619614,-0.599625,-0.599625,-0.599625,-0.599625,-0.599625,-0.579635,-0.559645,-0.559645,-0.539655,-0.539655,-0.539655,-0.539655,-0.539655,-0.539655,-0.519665,-0.499675,-0.499675,-0.499675,-0.499675,-0.479685,-0.459695,-0.459695,-0.439705,-0.459695,-0.459695,-0.459695,-0.459695,-0.439705,-0.419716,-0.419716,-0.359746,-0.339756,-0.339756,-0.319766,-0.359746,-0.339756,-0.379736,-0.379736,-0.359746,-0.339756,-0.319766,-0.299776,-0.259797,-0.259797,-0.259797,-0.279786,-0.279786,-0.299776,-0.299776,-0.279786,-0.259797,-0.239807,-0.219817,-0.239807,-0.239807,-0.279786,-0.279786,-0.279786,-0.259797,-0.259797,-0.239807,-0.239807,-0.239807,-0.259797,-0.259797,-0.259797,-0.239807,-0.219817,-0.199827,-0.199827,-0.199827,-0.219817,-0.219817,-0.239807,-0.219817,-0.199827,-0.199827,-0.179837,-0.179837,-0.159847,-0.159847,-0.139857,-0.139857,-0.119867,-0.119867,-0.119867,-0.139857,-0.119867,-0.119867,-0.119867,-0.0998775,-0.119867,-0.0998775,-0.0998775,-0.0998775,-0.0998775,-0.0798876,-0.0798876,-0.0598978,-0.0598978,-0.0399079,-0.0399079,-0.0399079,-0.0199181,-0.0199181,-0.0199181,7.18832e-05,7.18832e-05,0.0200617,0.0200617,0.0200617,0.0400516,0.0600414,0.0800314,0.100021,0.100021,0.100021,0.120011,0.120011,0.140001,0.159991,0.199971,0.179981,0.179981,0.179981,0.179981,0.23995,0.219961,0.23995,0.23995,0.25994,0.25994,0.29992,0.31991,0.29992,0.27993,0.27993,0.27993,0.31991,0.3399,0.3399,0.31991,0.31991,0.3399,0.37988,0.37988,0.35989,0.3399,0.35989,0.399869,0.399869,0.37988,0.37988,0.35989,0.419859,0.37988,0.35989,0.37988,0.399869,0.399869,0.419859,0.419859,0.419859,0.399869,0.419859,0.399869,0.399869,0.419859,0.419859,0.439849,0.459839,0.479829,0.499819,0.499819,0.519809,0.499819,0.499819,0.519809,0.539799,0.519809,0.539799,0.539799,0.519809,0.519809,0.499819,0.499819,0.479829,0.499819,0.519809,0.499819,0.499819,0.479829,0.519809,0.539799,0.579778,0.579778,0.559788,0.559788,0.599768,0.579778,0.599768,0.639748,0.639748,0.639748,0.679728,0.679728,0.659738,0.659738,0.679728,0.699718,0.699718,0.719707,0.719707,0.719707,0.739697,0.739697,0.739697,0.759687,0.779677,0.779677,0.799667,0.799667,0.799667,0.839647,0.839647,0.839647,0.839647,0.859637,0.859637,0.879627,0.879627,0.879627,0.879627,0.899616,0.899616,0.919606,0.919606,0.919606,0.919606,0.919606,0.939596,0.959586,0.939596,0.939596,0.979576,0.979576,1.01956,1.01956,1.01956,1.05954,1.05954,1.05954,1.07953,1.09952,1.09952,1.07953,1.09952,1.09952,1.1195,1.1195,1.15948
-0.819513,-0.819513,-0.819513,-0.819513,-0.819513,-0.799523,-0.799523,-0.819513,-0.799523,-0.779533,-0.759544,-0.759544,-0.759544,-0.739554,-0.739554,-0.719564,-0.719564,-0.719564,-0.719564,-0.719564,-0.719564,-0.719564,-0.699574,-0.699574,-0.699574,-0.699574,-0.679584,-0.659594,-0.659594,-0.659594,-0.659594,-0.659594,-0.639604,-0.639604,-0.619614,-0.619614,-0.619614,-0.619614,-0.619614,-0.619614,-0.619614,-0.619614,-0.619614,-0.599625,-0.579635,-0.579635,-0.559645,-0.559645,-0.559645,-0.559645,-0.559645,-0.559645,-0.539655,-0.519665,-0.519665,-0.519665,-0.519665,-0.499675,-0.479685,-0.459695,-0.459695,-0.479685,-0.479685,-0.479685,-0.459695,-0.459695,-0.439705,-0.419716,-0.419716,-0.379736,-0.399726,-0.399726,-0.419716,-0.419716,-0.399726,-0.379736,-0.379736,-0.359746,-0.339756,-0.319766,-0.299776,-0.279786,-0.299776,-0.339756,-0.339756,-0.319766,-0.299776,-0.299776,-0.279786,-0.259797,-0.259797,-0.279786,-0.299776,-0.279786,-0.279786,-0.279786,-0.279786,-0.279786,-0.259797,-0.259797,-0.259797,-0.259797,-0.259797,-0.259797,-0.259797,-0.239807,-0.219817,-0.199827,-0.199827,-0.219817,-0.259797,-0.239807,-0.239807,-0.219817,-0.199827,-0.199827,-0.179837,-0.179837,-0.159847,-0.159847,-0.139857,-0.139857,-0.139857,-0.159847,-0.159847,-0.139857,-0.139857,-0.119867,-0.119867,-0.0998775,-0.119867,-0.0998775,-0.0998775,-0.0998775,-0.0998775,-0.0798876,-0.0798876,-0.0598978,-0.0598978,-0.0399079,-0.0399079,-0.0399079,-0.0199181,-0.0199181,-0.0199181,7.18832e-05,7.18832e-05,0.0200617,0.0200617,0.0200617,0.0200617,0.0400516,0.0600414,0.0800314,0.120011,0.120011,0.140001,0.120011,0.120011,0.140001,0.159991,0.140001,0.120011,0.179981,0.179981,0.179981,0.179981,0.219961,0.23995,0.25994,0.25994,0.25994,0.29992,0.27993,0.27993,0.27993,0.27993,0.29992,0.31991,0.3399,0.3399,0.31991,0.29992,0.3399,0.37988,0.3399,0.31991,0.31991,0.37988,0.37988,0.35989,0.37988,0.37988,0.419859,0.37988,0.37988,0.35989,0.37988,0.399869,0.419859,0.419859,0.419859,0.399869,0.419859,0.419859,0.439849,0.439849,0.439849,0.459839,0.459839,0.459839,0.479829,0.459839,0.459839,0.459839,0.479829,0.499819,0.499819,0.499819,0.519809,0.499819,0.499819,0.499819,0.499819,0.499819,0.479829,0.499819,0.539799,0.519809,0.519809,0.559788,0.539799,0.519809,0.519809,0.559788,0.559788,0.539799,0.579778,0.579778,0.579778,0.599768,0.639748,0.639748,0.679728,0.679728,0.659738,0.659738,0.679728,0.699718,0.699718,0.719707,0.719707,0.719707,0.739697,0.739697,0.739697,0.759687,0.779677,0.779677,0.799667,0.799667,0.799667,0.839647,0.839647,0.819657,0.839647,0.859637,0.859637,0.879627,0.879627,0.879627,0.879627,0.899616,0.899616,0.899616,0.899616,0.919606,0.919606,0.919606,0.939596,0.939596,0.939596,0.959586,0.979576,0.979576,0.979576,0.979576,0.999566,1.05954,1.05954,1.05954,1.07953,1.09952,1.09952,1.07953,1.09952,1.09952,1.1195,1.1195,1.15948
-1.09937,-0.819513,-0.819513,-0.839503,-0.839503,-0.819513,-0.819513,-0.819513,-0.799523,-0.779533,-0.759544,-0.759544,-0.759544,-0.739554,-0.739554,-0.739554,-0.739554,-0.739554,-0.739554,-0.739554,-0.739554,-0.719564,-0.719564,-0.719564,-0.719564,-0.699574,-0.679584,-0.659594,-0.659594,-0.659594,-0.659594,-0.659594,-0.639604,-0.639604,-0.639604,-0.639604,-0.639604,-0.639604,-0.619614,-0.599625,-0.599625,-0.599625,-0.599625,-0.599625,-0.599625,-0.579635,-0.559645,-0.559645,-0.559645,-0.559645,-0.559645,-0.539655,-0.539655,-0.519665,-0.519665,-0.519665,-0.519665,-0.499675,-0.479685,-0.479685,-0.479685,-0.479685,-0.479685,-0.479685,-0.459695,-0.459695,-0.439705,-0.419716,-0.419716,-0.419716,-0.419716,-0.439705,-0.439705,-0.419716,-0.399726,-0.379736,-0.379736,-0.359746,-0.339756,-0.339756,-0.319766,-0.359746,-0.359746,-0.359746,-0.339756,-0.319766,-0.299776,-0.299776,-0.279786,-0.279786,-0.299776,-0.339756,-0.319766,-0.299776,-0.299776,-0.299776,-0.299776,-0.299776,-0.279786,-0.279786,-0.279786,-0.279786,-0.279786,-0.279786,-0.259797,-0.239807,-0.219817,-0.199827,-0.219817,-0.259797,-0.259797,-0.239807,-0.239807,-0.219817,-0.199827,-0.199827,-0.179837,-0.179837,-0.159847,-0.159847,-0.139857,-0.139857,-0.119867,-0.179837,-0.179837,-0.139857,-0.139857,-0.119867,-0.119867,-0.0998775,-0.0998775,-0.0998775,-0.0998775,-0.0998775,-0.0998775,-0.0798876,-0.0798876,-0.0598978,-0.0598978,-0.0399079,-0.0399079,-0.0399079,-0.0199181,-0.0199181,-0.0199181,7.18832e-05,7.18832e-05,0.0200617,0.0200617,0.0200617,0.0200617,0.0400516,0.0400516,0.0600414,0.100021,0.140001,0.159991,0.140001,0.120011,0.120011,0.120011,0.120011,0.100021,0.140001,0.179981,0.179981,0.179981,0.179981,0.179981,0.219961,0.25994,0.25994,0.27993,0.25994,0.25994,0.27993,0.27993,0.29992,0.29992,0.31991,0.31991,0.31991,0.29992,0.29992,0.3399,0.3399,0.3399,0.3399,0.35989,0.35989,0.35989,0.35989,0.37988,0.419859,0.37988,0.37988,0.399869,0.399869,0.419859,0.419859,0.419859,0.419859,0.399869,0.419859,0.439849,0.479829,0.459839,0.459839,0.459839,0.459839,0.459839,0.459839,0.439849,0.459839,0.459839,0.479829,0.479829,0.499819,0.499819,0.519809,0.499819,0.499819,0.499819,0.499819,0.499819,0.499819,0.499819,0.519809,0.519809,0.499819,0.499819,0.519809,0.519809,0.519809,0.559788,0.559788,0.559788,0.579778,0.599768,0.599768,0.599768,0.639748,0.639748,0.679728,0.679728,0.679728,0.699718,0.679728,0.699718,0.699718,0.719707,0.719707,0.719707,0.739697,0.739697,0.739697,0.759687,0.779677,0.799667,0.799667,0.799667,0.799667,0.819657,0.819657,0.819657,0.839647,0.859637,0.859637,0.879627,0.879627,0.879627,0.879627,0.899616,0.899616,0.899616,0.899616,0.919606,0.919606,0.919606,0.919606,0.919606,0.939596,0.959586,0.979576,0.979576,0.979576,0.979576,1.01956,1.05954,1.05954,1.05954,1.07953,1.09952,1.09952,1.07953,1.09952,1.09952,1.1195,1.1195,1.15948
-0.839503,-0.939452,-0.919463,-0.899473,-0.859493,-0.819513,-0.819513,-0.819513,-0.799523,-0.779533,-0.759544,-0.759544,-0.759544,-0.759544,-0.759544,-0.759544,-0.739554,-0.739554,-0.759544,-0.759544,-0.739554,-0.719564,-0.719564,-0.719564,-0.699574,-0.699574,-0.679584,-0.679584,-0.679584,-0.679584,-0.679584,-0.659594,-0.639604,-0.639604,-0.639604,-0.639604,-0.639604,-0.639604,-0.619614,-0.619614,-0.619614,-0.619614,-0.619614,-0.619614,-0.579635,-0.559645,-0.559645,-0.559645,-0.559645,-0.559645,-0.559645,-0.559645,-0.539655,-0.539655,-0.539655,-0.539655,-0.519665,-0.499675,-0.499675,-0.499675,-0.499675,-0.499675,-0.499675,-0.479685,-0.459695,-0.459695,-0.459695,-0.439705,-0.439705,-0.439705,-0.439705,-0.439705,-0.439705,-0.419716,-0.399726,-0.399726,-0.379736,-0.359746,-0.359746,-0.359746,-0.379736,-0.379736,-0.359746,-0.359746,-0.339756,-0.319766,-0.299776,-0.299776,-0.299776,-0.319766,-0.339756,-0.339756,-0.319766,-0.319766,-0.319766,-0.319766,-0.319766,-0.299776,-0.299776,-0.299776,-0.299776,-0.299776,-0.299776,-0.279786,-0.259797,-0.239807,-0.219817,-0.239807,-0.259797,-0.259797,-0.259797,-0.239807,-0.239807,-0.219817,-0.199827,-0.199827,-0.179837,-0.179837,-0.159847,-0.159847,-0.159847,-0.159847,-0.179837,-0.179837,-0.179837,-0.139857,-0.139857,-0.119867,-0.0998775,-0.0798876,-0.0798876,-0.0798876,-0.0798876,-0.0798876,-0.0798876,-0.0798876,-0.0798876,-0.0598978,-0.0598978,-0.0399079,-0.0399079,-0.0399079,-0.0199181,-0.0199181,-0.0199181,7.18832e-05,7.18832e-05,0.0200617,0.0200617,0.0200617,0.0200617,0.0400516,0.0400516,0.0400516,0.100021,0.100021,0.159991,0.140001,0.120011,0.120011,0.120011,0.120011,0.100021,0.120011,0.159991,0.179981,0.179981,0.179981,0.179981,0.199971,0.219961,0.25994,0.25994,0.23995,0.23995,0.25994,0.31991,0.31991,0.27993,0.29992,0.29992,0.31991,0.29992,0.29992,0.29992,0.31991,0.3399,0.3399,0.35989,0.35989,0.35989,0.35989,0.37988,0.37988,0.35989,0.37988,0.37988,0.439849,0.439849,0.419859,0.419859,0.399869,0.399869,0.419859,0.439849,0.499819,0.519809,0.499819,0.479829,0.479829,0.479829,0.459839,0.439849,0.459839,0.459839,0.479829,0.479829,0.499819,0.499819,0.519809,0.499819,0.499819,0.499819,0.499819,0.499819,0.499819,0.519809,0.539799,0.519809,0.499819,0.519809,0.519809,0.539799,0.539799,0.539799,0.559788,0.539799,0.559788,0.599768,0.599768,0.599768,0.639748,0.639748,0.679728,0.679728,0.679728,0.699718,0.679728,0.699718,0.719707,0.719707,0.719707,0.719707,0.739697,0.739697,0.739697,0.759687,0.759687,0.799667,0.779677,0.799667,0.819657,0.819657,0.839647,0.839647,0.839647,0.859637,0.859637,0.879627,0.879627,0.879627,0.879627,0.879627,0.879627,0.899616,0.899616,0.919606,0.939596,0.939596,0.939596,0.939596,0.939596,0.959586,0.979576,0.979576,0.979576,0.979576,1.01956,1.05954,1.05954,1.05954,1.07953,1.09952,1.09952,1.07953,1.09952,1.09952,1.1195,1.1195,1.15948
-0.919463,-0.999422,-0.979432,-0.879483,-0.819513,-0.819513,-0.819513,-0.819513,-0.799523,-0.779533,-0.759544,-0.759544,-0.759544,-0.759544,-0.759544,-0.759544,-0.739554,-0.739554,-0.759544,-0.759544,-0.739554,-0.719564,-0.719564,-0.719564,-0.699574,-0.699574,-0.699574,-0.699574,-0.699574,-0.699574,-0.679584,-0.659594,-0.659594,-0.659594,-0.659594,-0.659594,-0.659594,-0.639604,-0.639604,-0.639604,-0.619614,-0.619614,-0.619614,-0.599625,-0.579635,-0.579635,-0.579635,-0.579635,-0.579635,-0.579635,-0.579635,-0.559645,-0.539655,-0.539655,-0.539655,-0.539655,-0.539655,-0.519665,-0.519665,-0.499675,-0.499675,-0.499675,-0.499675,-0.479685,-0.479685,-0.479685,-0.459695,-0.439705,-0.439705,-0.439705,-0.439705,-0.439705,-0.439705,-0.439705,-0.419716,-0.419716,-0.399726,-0.379736,-0.379736,-0.399726,-0.399726,-0.399726,-0.379736,-0.359746,-0.339756,-0.319766,-0.319766,-0.319766,-0.339756,-0.339756,-0.339756,-0.339756,-0.319766,-0.319766,-0.319766,-0.319766,-0.319766,-0.319766,-0.319766,-0.319766,-0.299776,-0.299776,-0.299776,-0.279786,-0.259797,-0.239807,-0.239807,-0.259797,-0.279786,-0.259797,-0.259797,-0.239807,-0.239807,-0.219817,-0.199827,-0.199827,-0.179837,-0.179837,-0.179837,-0.179837,-0.179837,-0.179837,-0.179837,-0.179837,-0.179837,-0.139857,-0.139857,-0.119867,-0.0998775,-0.0798876,-0.0798876,-0.0798876,-0.0998775,-0.0998775,-0.0798876,-0.0998775,-0.0998775,-0.0798876,-0.0598978,-0.0798876,-0.0798876,-0.0598978,-0.0399079,-0.0399079,-0.0399079,-0.0399079,-0.0199181,-0.0199181,7.18832e-05,0.0200617,0.0200617,0.0400516,0.0400516,0.0400516,0.0400516,0.0600414,0.0800314,0.100021,0.100021,0.120011,0.120011,0.120011,0.100021,0.120011,0.120011,0.159991,0.199971,0.199971,0.199971,0.199971,0.219961,0.23995,0.23995,0.23995,0.219961,0.219961,0.3399,0.3399,0.31991,0.27993,0.29992,0.29992,0.29992,0.29992,0.29992,0.29992,0.3399,0.35989,0.35989,0.35989,0.35989,0.35989,0.35989,0.35989,0.35989,0.35989,0.37988,0.37988,0.37988,0.399869,0.419859,0.419859,0.419859,0.419859,0.439849,0.499819,0.499819,0.499819,0.479829,0.499819,0.459839,0.439849,0.439849,0.459839,0.459839,0.479829,0.479829,0.499819,0.499819,0.519809,0.519809,0.519809,0.519809,0.519809,0.519809,0.519809,0.519809,0.539799,0.519809,0.519809,0.519809,0.519809,0.539799,0.539799,0.539799,0.559788,0.559788,0.559788,0.599768,0.599768,0.599768,0.639748,0.639748,0.679728,0.679728,0.679728,0.699718,0.679728,0.699718,0.699718,0.699718,0.699718,0.719707,0.739697,0.739697,0.739697,0.759687,0.759687,0.779677,0.779677,0.799667,0.819657,0.819657,0.839647,0.839647,0.839647,0.859637,0.859637,0.879627,0.879627,0.859637,0.879627,0.859637,0.859637,0.879627,0.899616,0.919606,0.939596,0.939596,0.939596,0.939596,0.939596,0.959586,0.979576,0.979576,0.979576,0.979576,1.01956,1.05954,1.05954,1.05954,1.07953,1.09952,1.09952,1.07953,1.09952,1.09952,1.1195,1.1195,1.15948
-0.999422,-1.0394,-0.939452,-0.839503,-0.819513,-0.819513,-0.819513,-0.819513,-0.819513,-0.799523,-0.779533,-0.779533,-0.779533,-0.779533,-0.779533,-0.759544,-0.739554,-0.739554,-0.759544,-0.759544,-0.739554,-0.739554,-0.739554,-0.719564,-0.699574,-0.699574,-0.699574,-0.699574,-0.699574,-0.699574,-0.679584,-0.679584,-0.679584,-0.679584,-0.679584,-0.659594,-0.659594,-0.639604,-0.639604,-0.639604,-0.619614,-0.619614,-0.619614,-0.599625,-0.599625,-0.599625,-0.599625,-0.599625,-0.599625,-0.599625,-0.579635,-0.559645,-0.559645,-0.559645,-0.559645,-0.559645,-0.539655,-0.519665,-0.499675,-0.499675,-0.499675,-0.499675,-0.499675,-0.499675,-0.499675,-0.499675,-0.479685,-0.459695,-0.459695,-0.459695,-0.459695,-0.459695,-0.459695,-0.459695,-0.439705,-0.439705,-0.419716,-0.399726,-0.419716,-0.419716,-0.399726,-0.399726,-0.379736,-0.359746,-0.339756,-0.319766,-0.339756,-0.359746,-0.359746,-0.359746,-0.359746,-0.339756,-0.319766,-0.319766,-0.319766,-0.319766,-0.319766,-0.319766,-0.319766,-0.319766,-0.299776,-0.299776,-0.299776,-0.279786,-0.259797,-0.259797,-0.279786,-0.279786,-0.279786,-0.259797,-0.259797,-0.239807,-0.239807,-0.219817,-0.199827,-0.199827,-0.179837,-0.179837,-0.179837,-0.179837,-0.179837,-0.179837,-0.179837,-0.179837,-0.179837,-0.139857,-0.139857,-0.119867,-0.0998775,-0.0998775,-0.119867,-0.119867,-0.139857,-0.139857,-0.139857,-0.139857,-0.139857,-0.119867,-0.0998775,-0.0998775,-0.0798876,-0.0798876,-0.0798876,-0.0798876,-0.0798876,-0.0798876,-0.0598978,-0.0399079,-0.0399079,-0.0399079,7.18832e-05,0.0400516,0.0400516,0.0600414,0.0600414,0.0600414,0.0600414,0.0600414,0.0600414,0.0800314,0.0800314,0.120011,0.100021,0.120011,0.120011,0.120011,0.120011,0.199971,0.199971,0.199971,0.179981,0.199971,0.219961,0.23995,0.23995,0.23995,0.27993,0.29992,0.29992,0.27993,0.27993,0.27993,0.27993,0.29992,0.29992,0.29992,0.3399,0.35989,0.3399,0.3399,0.3399,0.35989,0.35989,0.35989,0.35989,0.35989,0.37988,0.37988,0.37988,0.399869,0.399869,0.399869,0.419859,0.419859,0.419859,0.479829,0.479829,0.479829,0.479829,0.459839,0.439849,0.439849,0.439849,0.459839,0.459839,0.479829,0.479829,0.499819,0.499819,0.519809,0.519809,0.519809,0.519809,0.519809,0.519809,0.519809,0.519809,0.539799,0.519809,0.519809,0.519809,0.519809,0.539799,0.539799,0.539799,0.559788,0.559788,0.579778,0.599768,0.599768,0.619758,0.639748,0.639748,0.679728,0.679728,0.679728,0.699718,0.699718,0.699718,0.699718,0.699718,0.699718,0.719707,0.739697,0.739697,0.739697,0.759687,0.759687,0.799667,0.799667,0.799667,0.819657,0.819657,0.839647,0.839647,0.839647,0.859637,0.859637,0.859637,0.859637,0.859637,0.879627,0.859637,0.879627,0.879627,0.899616,0.919606,0.939596,0.939596,0.939596,0.939596,0.939596,0.959586,0.979576,0.979576,0.979576,0.979576,1.01956,1.05954,1.05954,1.05954,1.07953,1.09952,1.09952,1.07953,1.09952,1.09952,1.1195,1.1195,1.15948
-1.01941,-0.959442,-0.839503,-0.839503,-0.839503,-0.839503,-0.839503,-0.839503,-0.839503,-0.799523,-0.779533,-0.779533,-0.779533,-0.779533,-0.779533,-0.759544,-0.759544,-0.759544,-0.759544,-0.759544,-0.759544,-0.759544,-0.759544,-0.719564,-0.699574,-0.699574,-0.699574,-0.699574,-0.699574,-0.699574,-0.679584,-0.679584,-0.679584,-0.679584,-0.679584,-0.659594,-0.639604,-0.639604,-0.639604,-0.639604,-0.639604,-0.639604,-0.619614,-0.619614,-0.619614,-0.619614,-0.599625,-0.599625,-0.599625,-0.599625,-0.579635,-0.559645,-0.559645,-0.559645,-0.559645,-0.559645,-0.539655,-0.519665,-0.519665,-0.519665,-0.519665,-0.519665,-0.519665,-0.519665,-0.519665,-0.499675,-0.479685,-0.459695,-0.459695,-0.459695,-0.459695,-0.459695,-0.459695,-0.459695,-0.439705,-0.439705,-0.419716,-0.419716,-0.419716,-0.419716,-0.399726,-0.399726,-0.379736,-0.359746,-0.339756,-0.339756,-0.359746,-0.359746,-0.359746,-0.359746,-0.359746,-0.339756,-0.319766,-0.319766,-0.319766,-0.319766,-0.319766,-0.319766,-0.319766,-0.319766,-0.299776,-0.299776,-0.299776,-0.279786,-0.259797,-0.279786,-0.279786,-0.279786,-0.279786,-0.259797,-0.259797,-0.239807,-0.239807,-0.219817,-0.219817,-0.219817,-0.199827,-0.199827,-0.199827,-0.199827,-0.199827,-0.199827,-0.199827,-0.199827,-0.179837,-0.159847,-0.139857,-0.139857,-0.139857,-0.139857,-0.139857,-0.139857,-0.139857,-0.139857,-0.139857,-0.139857,-0.139857,-0.139857,-0.0998775,-0.0998775,-0.0798876,-0.0798876,-0.0798876,-0.0798876,-0.0798876,-0.0798876,-0.0598978,-0.0598978,-0.0598978,-0.0598978,-0.0399079,-0.0199181,0.0200617,0.0400516,0.0400516,0.0400516,0.0400516,0.0400516,0.0600414,0.0600414,0.0600414,0.0800314,0.100021,0.120011,0.120011,0.100021,0.100021,0.140001,0.199971,0.179981,0.179981,0.179981,0.179981,0.219961,0.25994,0.25994,0.25994,0.25994,0.25994,0.27993,0.27993,0.27993,0.27993,0.29992,0.29992,0.29992,0.29992,0.3399,0.3399,0.3399,0.3399,0.3399,0.3399,0.35989,0.35989,0.35989,0.37988,0.37988,0.37988,0.399869,0.399869,0.399869,0.419859,0.419859,0.439849,0.459839,0.459839,0.479829,0.459839,0.439849,0.439849,0.439849,0.439849,0.459839,0.459839,0.479829,0.479829,0.499819,0.499819,0.519809,0.519809,0.519809,0.539799,0.539799,0.539799,0.539799,0.539799,0.559788,0.539799,0.539799,0.559788,0.539799,0.539799,0.559788,0.559788,0.579778,0.579778,0.599768,0.619758,0.619758,0.639748,0.639748,0.639748,0.679728,0.699718,0.679728,0.699718,0.699718,0.699718,0.699718,0.699718,0.699718,0.719707,0.739697,0.739697,0.739697,0.759687,0.759687,0.799667,0.799667,0.799667,0.819657,0.819657,0.839647,0.839647,0.839647,0.859637,0.859637,0.879627,0.879627,0.859637,0.879627,0.859637,0.879627,0.879627,0.899616,0.919606,0.939596,0.939596,0.939596,0.939596,0.939596,0.959586,0.979576,0.979576,0.979576,0.979576,1.01956,1.05954,1.05954,1.05954,1.07953,1.09952,1.09952,1.07953,1.09952,1.09952,1.1195,1.1195,1.15948
-0.899473,-0.879483,-0.859493,-0.859493,-0.859493,-0.839503,-0.839503,-0.839503,-0.819513,-0.799523,-0.799523,-0.799523,-0.799523,-0.799523,-0.779533,-0.779533,-0.779533,-0.779533,-0.779533,-0.779533,-0.779533,-0.779533,-0.739554,-0.719564,-0.719564,-0.719564,-0.719564,-0.719564,-0.719564,-0.719564,-0.679584,-0.679584,-0.679584,-0.679584,-0.659594,-0.659594,-0.659594,-0.659594,-0.659594,-0.659594,-0.659594,-0.639604,-0.619614,-0.599625,-0.619614,-0.619614,-0.599625,-0.599625,-0.599625,-0.599625,-0.579635,-0.579635,-0.579635,-0.579635,-0.579635,-0.559645,-0.519665,-0.519665,-0.519665,-0.519665,-0.519665,-0.519665,-0.519665,-0.519665,-0.519665,-0.479685,-0.459695,-0.459695,-0.459695,-0.459695,-0.459695,-0.459695,-0.459695,-0.459695,-0.439705,-0.439705,-0.419716,-0.419716,-0.419716,-0.419716,-0.399726,-0.399726,-0.379736,-0.359746,-0.359746,-0.359746,-0.359746,-0.359746,-0.359746,-0.359746,-0.359746,-0.339756,-0.319766,-0.339756,-0.319766,-0.319766,-0.319766,-0.319766,-0.319766,-0.319766,-0.299776,-0.299776,-0.299776,-0.279786,-0.259797,-0.259797,-0.259797,-0.259797,-0.259797,-0.259797,-0.259797,-0.239807,-0.239807,-0.219817,-0.239807,-0.219817,-0.219817,-0.199827,-0.199827,-0.199827,-0.199827,-0.199827,-0.199827,-0.199827,-0.179837,-0.179837,-0.179837,-0.179837,-0.159847,-0.159847,-0.139857,-0.119867,-0.119867,-0.119867,-0.119867,-0.119867,-0.119867,-0.119867,-0.0998775,-0.0998775,-0.0798876,-0.0798876,-0.0798876,-0.0798876,-0.0798876,-0.0798876,-0.0598978,-0.0598978,-0.0598978,-0.0598978,-0.0399079,-0.0399079,-0.0199181,0.0200617,0.0200617,0.0400516,0.0400516,0.0400516,0.0600414,0.0600414,0.0600414,0.0400516,0.100021,0.100021,0.120011,0.120011,0.120011,0.140001,0.179981,0.199971,0.199971,0.199971,0.199971,0.199971,0.219961,0.25994,0.23995,0.219961,0.23995,0.25994,0.27993,0.27993,0.27993,0.29992,0.29992,0.31991,0.3399,0.3399,0.31991,0.31991,0.31991,0.31991,0.3399,0.35989,0.35989,0.35989,0.37988,0.37988,0.37988,0.399869,0.399869,0.399869,0.419859,0.439849,0.459839,0.459839,0.479829,0.479829,0.439849,0.439849,0.439849,0.439849,0.439849,0.459839,0.459839,0.479829,0.479829,0.499819,0.499819,0.519809,0.519809,0.519809,0.539799,0.539799,0.539799,0.539799,0.539799,0.559788,0.579778,0.599768,0.579778,0.559788,0.559788,0.579778,0.599768,0.579778,0.579778,0.599768,0.619758,0.639748,0.639748,0.659738,0.639748,0.679728,0.699718,0.679728,0.699718,0.699718,0.699718,0.699718,0.699718,0.699718,0.719707,0.739697,0.739697,0.739697,0.759687,0.759687,0.799667,0.799667,0.799667,0.819657,0.819657,0.839647,0.839647,0.839647,0.859637,0.859637,0.879627,0.879627,0.859637,0.879627,0.859637,0.879627,0.879627,0.899616,0.919606,0.939596,0.939596,0.939596,0.939596,0.939596,0.959586,0.979576,0.979576,0.979576,0.979576,1.01956,1.05954,1.05954,1.05954,1.07953,1.09952,1.09952,1.07953,1.09952,1.09952,1.1195,1.1195,1.15948
-0.859493,-0.859493,-0.859493,-0.859493,-0.859493,-0.839503,-0.839503,-0.819513,-0.819513,-0.799523,-0.799523,-0.799523,-0.799523,-0.799523,-0.799523,-0.779533,-0.779533,-0.779533,-0.779533,-0.779533,-0.779533,-0.759544,-0.739554,-0.739554,-0.719564,-0.719564,-0.719564,-0.719564,-0.699574,-0.679584,-0.679584,-0.679584,-0.679584,-0.679584,-0.659594,-0.659594,-0.659594,-0.659594,-0.659594,-0.659594,-0.659594,-0.619614,-0.599625,-0.599625,-0.619614,-0.619614,-0.599625,-0.599625,-0.579635,-0.599625,-0.579635,-0.579635,-0.579635,-0.579635,-0.559645,-0.539655,-0.539655,-0.539655,-0.539655,-0.539655,-0.539655,-0.539655,-0.539655,-0.539655,-0.519665,-0.479685,-0.479685,-0.479685,-0.479685,-0.479685,-0.479685,-0.479685,-0.479685,-0.459695,-0.439705,-0.419716,-0.419716,-0.419716,-0.419716,-0.419716,-0.399726,-0.399726,-0.379736,-0.359746,-0.359746,-0.359746,-0.359746,-0.359746,-0.359746,-0.359746,-0.359746,-0.339756,-0.339756,-0.339756,-0.319766,-0.319766,-0.319766,-0.319766,-0.319766,-0.319766,-0.299776,-0.299776,-0.279786,-0.259797,-0.259797,-0.259797,-0.259797,-0.259797,-0.259797,-0.259797,-0.259797,-0.239807,-0.239807,-0.239807,-0.239807,-0.219817,-0.219817,-0.199827,-0.199827,-0.199827,-0.199827,-0.199827,-0.179837,-0.199827,-0.199827,-0.199827,-0.179837,-0.179837,-0.159847,-0.159847,-0.139857,-0.139857,-0.139857,-0.139857,-0.139857,-0.139857,-0.139857,-0.119867,-0.0998775,-0.0998775,-0.0798876,-0.0798876,-0.0798876,-0.0798876,-0.0798876,-0.0798876,-0.0598978,-0.0598978,-0.0399079,-0.0399079,-0.0199181,-0.0199181,-0.0199181,-0.0199181,-0.0199181,-0.0199181,7.18832e-05,0.0400516,0.0600414,0.0800314,0.0600414,0.0400516,0.0400516,0.0800314,0.120011,0.140001,0.140001,0.159991,0.159991,0.159991,0.199971,0.199971,0.179981,0.179981,0.219961,0.23995,0.23995,0.219961,0.219961,0.219961,0.219961,0.27993,0.27993,0.27993,0.29992,0.31991,0.3399,0.3399,0.31991,0.31991,0.31991,0.31991,0.3399,0.35989,0.35989,0.35989,0.37988,0.37988,0.37988,0.399869,0.399869,0.399869,0.419859,0.479829,0.499819,0.499819,0.499819,0.479829,0.439849,0.439849,0.459839,0.459839,0.459839,0.479829,0.479829,0.479829,0.479829,0.499819,0.499819,0.519809,0.519809,0.519809,0.539799,0.539799,0.539799,0.559788,0.559788,0.559788,0.579778,0.599768,0.579778,0.559788,0.559788,0.579778,0.599768,0.579778,0.579778,0.599768,0.619758,0.639748,0.639748,0.659738,0.639748,0.679728,0.699718,0.679728,0.699718,0.699718,0.699718,0.699718,0.699718,0.699718,0.719707,0.739697,0.739697,0.739697,0.759687,0.759687,0.799667,0.799667,0.799667,0.819657,0.819657,0.839647,0.839647,0.839647,0.859637,0.859637,0.879627,0.879627,0.859637,0.879627,0.859637,0.879627,0.879627,0.899616,0.919606,0.939596,0.939596,0.939596,0.939596,0.939596,0.959586,0.979576,0.979576,0.979576,0.979576,1.01956,1.05954,1.05954,1.05954,1.07953,1.09952,1.09952,1.07953,1.09952,1.09952,1.1195,1.1195,1.15948
-0.859493,-0.859493,-0.859493,-0.859493,-0.859493,-0.839503,-0.839503,-0.839503,-0.819513,-0.819513,-0.819513,-0.819513,-0.819513,-0.819513,-0.799523,-0.779533,-0.779533,-0.779533,-0.779533,-0.779533,-0.779533,-0.779533,-0.739554,-0.739554,-0.719564,-0.719564,-0.719564,-0.719564,-0.699574,-0.679584,-0.679584,-0.679584,-0.679584,-0.679584,-0.659594,-0.659594,-0.659594,-0.659594,-0.659594,-0.659594,-0.639604,-0.619614,-0.619614,-0.619614,-0.619614,-0.619614,-0.599625,-0.599625,-0.579635,-0.579635,-0.579635,-0.579635,-0.579635,-0.579635,-0.559645,-0.559645,-0.559645,-0.559645,-0.559645,-0.559645,-0.559645,-0.559645,-0.559645,-0.539655,-0.539655,-0.479685,-0.479685,-0.479685,-0.479685,-0.479685,-0.479685,-0.479685,-0.479685,-0.439705,-0.419716,-0.419716,-0.419716,-0.419716,-0.419716,-0.419716,-0.399726,-0.399726,-0.379736,-0.359746,-0.359746,-0.359746,-0.359746,-0.359746,-0.359746,-0.359746,-0.359746,-0.359746,-0.339756,-0.339756,-0.319766,-0.319766,-0.319766,-0.319766,-0.319766,-0.319766,-0.299776,-0.279786,-0.259797,-0.259797,-0.259797,-0.259797,-0.259797,-0.259797,-0.259797,-0.259797,-0.259797,-0.239807,-0.239807,-0.239807,-0.239807,-0.219817,-0.219817,-0.199827,-0.199827,-0.199827,-0.199827,-0.199827,-0.179837,-0.199827,-0.199827,-0.199827,-0.179837,-0.179837,-0.159847,-0.159847,-0.139857,-0.139857,-0.139857,-0.139857,-0.139857,-0.139857,-0.139857,-0.119867,-0.0998775,-0.0998775,-0.0798876,-0.0798876,-0.0798876,-0.0798876,-0.0798876,-0.0798876,-0.0598978,-0.0598978,-0.0399079,-0.0199181,7.18832e-05,-0.0199181,-0.0199181,-0.0199181,-0.0199181,-0.0199181,7.18832e-05,0.0400516,0.0600414,0.0800314,0.0600414,0.0600414,0.0600414,0.0600414,0.0800314,0.140001,0.159991,0.179981,0.140001,0.140001,0.159991,0.199971,0.199971,0.199971,0.199971,0.219961,0.23995,0.219961,0.219961,0.219961,0.23995,0.27993,0.27993,0.29992,0.29992,0.31991,0.3399,0.3399,0.31991,0.31991,0.31991,0.31991,0.3399,0.35989,0.35989,0.35989,0.37988,0.37988,0.37988,0.399869,0.419859,0.419859,0.459839,0.499819,0.519809,0.519809,0.499819,0.479829,0.439849,0.439849,0.459839,0.459839,0.459839,0.479829,0.459839,0.459839,0.479829,0.499819,0.499819,0.519809,0.519809,0.519809,0.539799,0.539799,0.539799,0.559788,0.559788,0.559788,0.579778,0.599768,0.579778,0.559788,0.559788,0.579778,0.599768,0.579778,0.579778,0.599768,0.619758,0.639748,0.639748,0.659738,0.659738,0.679728,0.699718,0.679728,0.699718,0.699718,0.699718,0.699718,0.699718,0.699718,0.719707,0.739697,0.739697,0.739697,0.759687,0.759687,0.799667,0.799667,0.799667,0.819657,0.819657,0.839647,0.839647,0.839647,0.859637,0.859637,0.879627,0.879627,0.859637,0.879627,0.859637,0.879627,0.879627,0.899616,0.919606,0.939596,0.939596,0.939596,0.939596,0.939596,0.959586,0.979576,0.979576,0.979576,0.979576,1.01956,1.05954,1.05954,1.05954,1.07953,1.09952,1.09952,1.07953,1.09952,1.09952,1.1195,1.1195,1.15948
-0.859493,-0.859493,-0.859493,-0.859493,-0.859493,-0.859493,-0.859493,-0.839503,-0.839503,-0.839503,-0.819513,-0.819513,-0.819513,-0.799523,-0.799523,-0.799523,-0.799523,-0.799523,-0.799523,-0.799523,-0.779533,-0.739554,-0.739554,-0.739554,-0.719564,-0.719564,-0.699574,-0.699574,-0.699574,-0.699574,-0.679584,-0.679584,-0.679584,-0.679584,-0.659594,-0.659594,-0.659594,-0.659594,-0.659594,-0.659594,-0.639604,-0.599625,-0.599625,-0.599625,-0.619614,-0.599625,-0.599625,-0.599625,-0.579635,-0.599625,-0.579635,-0.599625,-0.599625,-0.579635,-0.559645,-0.559645,-0.559645,-0.559645,-0.539655,-0.539655,-0.539655,-0.539655,-0.539655,-0.519665,-0.479685,-0.479685,-0.479685,-0.479685,-0.479685,-0.479685,-0.479685,-0.479685,-0.459695,-0.439705,-0.439705,-0.439705,-0.439705,-0.439705,-0.439705,-0.419716,-0.399726,-0.399726,-0.379736,-0.379736,-0.379736,-0.379736,-0.379736,-0.379736,-0.379736,-0.379736,-0.379736,-0.359746,-0.339756,-0.319766,-0.319766,-0.319766,-0.319766,-0.319766,-0.319766,-0.319766,-0.299776,-0.279786,-0.259797,-0.259797,-0.259797,-0.259797,-0.259797,-0.259797,-0.259797,-0.259797,-0.259797,-0.239807,-0.239807,-0.239807,-0.239807,-0.219817,-0.219817,-0.199827,-0.199827,-0.199827,-0.179837,-0.179837,-0.179837,-0.199827,-0.199827,-0.199827,-0.179837,-0.179837,-0.159847,-0.159847,-0.139857,-0.139857,-0.159847,-0.159847,-0.159847,-0.159847,-0.139857,-0.139857,-0.0998775,-0.0998775,-0.0798876,-0.0798876,-0.0798876,-0.0798876,-0.0798876,-0.0798876,-0.0598978,-0.0598978,-0.0399079,-0.0199181,7.18832e-05,-0.0199181,-0.0199181,-0.0199181,-0.0199181,-0.0199181,7.18832e-05,7.18832e-05,0.0400516,0.0600414,0.0600414,0.0400516,0.0400516,0.0400516,0.0600414,0.120011,0.159991,0.159991,0.120011,0.120011,0.120011,0.199971,0.219961,0.199971,0.179981,0.179981,0.219961,0.219961,0.219961,0.219961,0.219961,0.27993,0.27993,0.29992,0.29992,0.31991,0.3399,0.3399,0.31991,0.31991,0.31991,0.31991,0.3399,0.35989,0.35989,0.35989,0.37988,0.37988,0.37988,0.399869,0.419859,0.419859,0.459839,0.499819,0.519809,0.519809,0.499819,0.479829,0.439849,0.439849,0.459839,0.459839,0.459839,0.479829,0.459839,0.459839,0.479829,0.499819,0.499819,0.519809,0.519809,0.519809,0.539799,0.539799,0.539799,0.559788,0.559788,0.559788,0.579778,0.599768,0.579778,0.559788,0.559788,0.579778,0.599768,0.579778,0.579778,0.599768,0.619758,0.639748,0.639748,0.659738,0.659738,0.679728,0.699718,0.679728,0.699718,0.699718,0.699718,0.699718,0.699718,0.699718,0.719707,0.739697,0.739697,0.739697,0.759687,0.759687,0.799667,0.799667,0.799667,0.819657,0.819657,0.839647,0.839647,0.839647,0.859637,0.859637,0.879627,0.879627,0.859637,0.879627,0.859637,0.879627,0.879627,0.899616,0.919606,0.939596,0.939596,0.939596,0.939596,0.939596,0.959586,0.979576,0.979576,0.979576,0.979576,1.01956,1.05954,1.05954,1.05954,1.07953,1.09952,1.09952,1.07953,1.09952,1.09952,1.1195,1.1195,1.15948
-0.879483,-0.879483,-0.879483,-0.879483,-0.879483,-0.879483,-0.859493,-0.839503,-0.839503,-0.839503,-0.819513,-0.819513,-0.819513,-0.819513,-0.819513,-0.819513,-0.819513,-0.819513,-0.819513,-0.779533,-0.739554,-0.739554,-0.739554,-0.739554,-0.719564,-0.719564,-0.719564,-0.719564,-0.719564,-0.699574,-0.679584,-0.679584,-0.659594,-0.659594,-0.659594,-0.659594,-0.659594,-0.659594,-0.659594,-0.659594,-0.639604,-0.599625,-0.599625,-0.599625,-0.619614,-0.599625,-0.599625,-0.599625,-0.599625,-0.599625,-0.579635,-0.599625,-0.599625,-0.559645,-0.539655,-0.539655,-0.539655,-0.539655,-0.539655,-0.539655,-0.539655,-0.539655,-0.499675,-0.479685,-0.479685,-0.479685,-0.479685,-0.479685,-0.479685,-0.479685,-0.479685,-0.479685,-0.459695,-0.439705,-0.419716,-0.419716,-0.419716,-0.419716,-0.399726,-0.419716,-0.399726,-0.399726,-0.379736,-0.359746,-0.359746,-0.359746,-0.359746,-0.359746,-0.359746,-0.359746,-0.359746,-0.339756,-0.339756,-0.339756,-0.339756,-0.339756,-0.339756,-0.339756,-0.339756,-0.319766,-0.299776,-0.279786,-0.279786,-0.279786,-0.279786,-0.279786,-0.279786,-0.279786,-0.279786,-0.259797,-0.239807,-0.239807,-0.239807,-0.239807,-0.239807,-0.219817,-0.219817,-0.199827,-0.199827,-0.179837,-0.179837,-0.179837,-0.179837,-0.199827,-0.179837,-0.199827,-0.179837,-0.179837,-0.159847,-0.159847,-0.139857,-0.159847,-0.179837,-0.179837,-0.179837,-0.179837,-0.179837,-0.179837,-0.139857,-0.119867,-0.0998775,-0.0998775,-0.0798876,-0.0798876,-0.0798876,-0.0798876,-0.0598978,-0.0598978,-0.0399079,-0.0199181,7.18832e-05,-0.0199181,-0.0199181,-0.0199181,-0.0199181,-0.0199181,-0.0199181,-0.0199181,-0.0199181,0.0400516,0.0600414,0.0600414,0.0600414,0.0600414,0.0600414,0.0600414,0.120011,0.140001,0.120011,0.120011,0.140001,0.159991,0.199971,0.199971,0.179981,0.179981,0.179981,0.179981,0.219961,0.199971,0.219961,0.27993,0.27993,0.29992,0.29992,0.31991,0.3399,0.3399,0.31991,0.31991,0.31991,0.31991,0.3399,0.35989,0.35989,0.35989,0.37988,0.37988,0.37988,0.399869,0.419859,0.419859,0.459839,0.499819,0.519809,0.519809,0.499819,0.479829,0.439849,0.439849,0.459839,0.459839,0.459839,0.479829,0.459839,0.459839,0.479829,0.499819,0.499819,0.519809,0.519809,0.519809,0.539799,0.539799,0.539799,0.559788,0.559788,0.559788,0.579778,0.599768,0.579778,0.559788,0.559788,0.579778,0.599768,0.579778,0.579778,0.599768,0.619758,0.639748,0.639748,0.659738,0.659738,0.679728,0.699718,0.679728,0.699718,0.699718,0.699718,0.699718,0.699718,0.699718,0.719707,0.739697,0.739697,0.739697,0.759687,0.759687,0.799667,0.799667,0.799667,0.819657,0.819657,0.839647,0.839647,0.839647,0.859637,0.859637,0.879627,0.879627,0.859637,0.879627,0.859637,0.879627,0.879627,0.899616,0.919606,0.939596,0.939596,0.939596,0.939596,0.939596,0.959586,0.979576,0.979576,0.979576,0.979576,1.01956,1.05954,1.05954,1.05954,1.07953,1.09952,1.09952,1.07953,1.09952,1.09952,1.1195,1.1195,1.15948
-0.899473,-0.899473,-0.899473,-0.899473,-0.899473,-0.879483,-0.859493,-0.859493,-0.859493,-0.839503,-0.819513,-0.839503,-0.839503,-0.839503,-0.839503,-0.819513,-0.819513,-0.819513,-0.779533,-0.759544,-0.759544,-0.759544,-0.759544,-0.739554,-0.719564,-0.719564,-0.719564,-0.719564,-0.719564,-0.699574,-0.679584,-0.679584,-0.679584,-0.679584,-0.679584,-0.679584,-0.679584,-0.679584,-0.679584,-0.639604,-0.619614,-0.619614,-0.619614,-0.639604,-0.619614,-0.619614,-0.619614,-0.599625,-0.599625,-0.599625,-0.579635,-0.599625,-0.599625,-0.579635,-0.559645,-0.559645,-0.559645,-0.539655,-0.539655,-0.539655,-0.539655,-0.539655,-0.499675,-0.499675,-0.499675,-0.499675,-0.499675,-0.499675,-0.499675,-0.499675,-0.499675,-0.499675,-0.459695,-0.439705,-0.439705,-0.439705,-0.439705,-0.419716,-0.399726,-0.419716,-0.399726,-0.399726,-0.379736,-0.379736,-0.379736,-0.379736,-0.379736,-0.359746,-0.359746,-0.359746,-0.339756,-0.339756,-0.319766,-0.319766,-0.319766,-0.319766,-0.319766,-0.319766,-0.319766,-0.319766,-0.299776,-0.299776,-0.299776,-0.299776,-0.279786,-0.279786,-0.279786,-0.279786,-0.259797,-0.259797,-0.259797,-0.259797,-0.259797,-0.259797,-0.239807,-0.219817,-0.219817,-0.199827,-0.199827,-0.199827,-0.199827,-0.199827,-0.199827,-0.199827,-0.179837,-0.199827,-0.179837,-0.179837,-0.159847,-0.159847,-0.139857,-0.179837,-0.179837,-0.179837,-0.179837,-0.179837,-0.179837,-0.179837,-0.159847,-0.139857,-0.119867,-0.0998775,-0.0798876,-0.0798876,-0.0798876,-0.0798876,-0.0598978,-0.0598978,-0.0399079,-0.0199181,7.18832e-05,-0.0199181,7.18832e-05,7.18832e-05,7.18832e-05,7.18832e-05,7.18832e-05,-0.0199181,-0.0199181,0.0800314,0.0600414,0.0800314,0.0800314,0.0800314,0.0800314,0.0600414,0.100021,0.120011,0.120011,0.140001,0.140001,0.120011,0.159991,0.179981,0.179981,0.179981,0.179981,0.199971,0.219961,0.199971,0.539799,0.999566,1.15948,1.13949,1.17947,1.07953,0.819657,0.739697,0.31991,0.31991,0.31991,0.31991,0.3399,0.35989,0.35989,0.35989,0.37988,0.37988,0.37988,0.399869,0.419859,0.419859,0.459839,0.499819,0.519809,0.519809,0.499819,0.479829,0.439849,0.439849,0.459839,0.459839,0.459839,0.479829,0.459839,0.459839,0.479829,0.499819,0.499819,0.519809,0.519809,0.519809,0.539799,0.539799,0.539799,0.559788,0.559788,0.559788,0.579778,0.599768,0.579778,0.559788,0.559788,0.579778,0.599768,0.579778,0.579778,0.599768,0.619758,0.639748,0.639748,0.659738,0.659738,0.679728,0.699718,0.679728,0.699718,0.699718,0.699718,0.699718,0.699718,0.699718,0.719707,0.739697,0.739697,0.739697,0.759687,0.759687,0.799667,0.799667,0.799667,0.819657,0.819657,0.839647,0.839647,0.839647,0.859637,0.859637,0.879627,0.879627,0.859637,0.879627,0.859637,0.879627,0.879627,0.899616,0.919606,0.939596,0.939596,0.939596,0.939596,0.939596,0.959586,0.979576,0.979576,0.979576,0.979576,1.01956,1.05954,1.05954,1.05954,1.07953,1.09952,1.09952,1.07953,1.09952,1.09952,1.1195,1.1195,1.15948
-0.919463,-0.899473,-0.919463,-0.919463,-0.899473,-0.879483,-0.879483,-0.879483,-0.859493,-0.839503,-0.839503,-0.839503,-0.859493,-0.839503,-0.839503,-0.819513,-0.819513,-0.779533,-0.779533,-0.779533,-0.779533,-0.779533,-0.759544,-0.739554,-0.739554,-0.739554,-0.739554,-0.739554,-0.719564,-0.699574,-0.699574,-0.699574,-0.699574,-0.699574,-0.699574,-0.679584,-0.679584,-0.679584,-0.659594,-0.639604,-0.639604,-0.639604,-0.639604,-0.639604,-0.639604,-0.639604,-0.619614,-0.599625,-0.599625,-0.599625,-0.579635,-0.599625,-0.579635,-0.579635,-0.579635,-0.579635,-0.579635,-0.559645,-0.559645,-0.559645,-0.559645,-0.539655,-0.499675,-0.499675,-0.499675,-0.499675,-0.499675,-0.499675,-0.499675,-0.499675,-0.499675,-0.499675,-0.459695,-0.459695,-0.459695,-0.459695,-0.439705,-0.419716,-0.399726,-0.419716,-0.399726,-0.399726,-0.379736,-0.379736,-0.379736,-0.379736,-0.379736,-0.359746,-0.359746,-0.359746,-0.359746,-0.339756,-0.339756,-0.339756,-0.339756,-0.339756,-0.339756,-0.339756,-0.339756,-0.319766,-0.319766,-0.319766,-0.319766,-0.299776,-0.279786,-0.279786,-0.279786,-0.279786,-0.279786,-0.279786,-0.279786,-0.279786,-0.279786,-0.259797,-0.239807,-0.219817,-0.219817,-0.219817,-0.219817,-0.219817,-0.219817,-0.199827,-0.199827,-0.199827,-0.179837,-0.199827,-0.179837,-0.179837,-0.179837,-0.179837,-0.179837,-0.179837,-0.179837,-0.179837,-0.179837,-0.179837,-0.179837,-0.179837,-0.179837,-0.179837,-0.139857,-0.119867,-0.0998775,-0.0798876,-0.0798876,-0.0798876,-0.0598978,-0.0598978,-0.0399079,-0.0199181,7.18832e-05,-0.0199181,7.18832e-05,7.18832e-05,7.18832e-05,7.18832e-05,7.18832e-05,-0.0199181,-0.0199181,0.0600414,0.0600414,0.0800314,0.0800314,0.0800314,0.0800314,0.0600414,0.0800314,0.100021,0.120011,0.120011,0.120011,0.120011,0.159991,0.179981,0.179981,0.179981,0.179981,0.199971,0.219961,0.679728,1.69921,2.37887,2.45883,2.37887,2.43884,2.13899,2.13899,1.73919,1.17947,0.31991,0.31991,0.31991,0.3399,0.35989,0.35989,0.35989,0.37988,0.37988,0.37988,0.399869,0.419859,0.419859,0.459839,0.499819,0.519809,0.519809,0.499819,0.479829,0.439849,0.439849,0.459839,0.459839,0.459839,0.479829,0.459839,0.459839,0.479829,0.499819,0.499819,0.519809,0.519809,0.519809,0.539799,0.539799,0.539799,0.559788,0.559788,0.559788,0.579778,0.599768,0.579778,0.559788,0.559788,0.579778,0.599768,0.579778,0.579778,0.599768,0.619758,0.639748,0.639748,0.659738,0.659738,0.679728,0.699718,0.679728,0.699718,0.699718,0.699718,0.699718,0.699718,0.699718,0.719707,0.739697,0.739697,0.739697,0.759687,0.759687,0.799667,0.799667,0.799667,0.819657,0.819657,0.839647,0.839647,0.839647,0.859637,0.859637,0.879627,0.879627,0.859637,0.879627,0.859637,0.879627,0.879627,0.899616,0.919606,0.939596,0.939596,0.939596,0.939596,0.939596,0.959586,0.979576,0.979576,0.979576,0.979576,1.01956,1.05954,1.05954,1.05954,1.07953,1.09952,1.09952,1.07953,1.09952,1.09952,1.1195,1.1195,1.15948
-0.899473,-0.979432,-0.939452,-0.919463,-0.899473,-0.879483,-0.879483,-0.879483,-0.859493,-0.879483,-0.879483,-0.859493,-0.859493,-0.839503,-0.839503,-0.819513,-0.819513,-0.799523,-0.799523,-0.799523,-0.799523,-0.779533,-0.759544,-0.739554,-0.759544,-0.759544,-0.759544,-0.739554,-0.719564,-0.699574,-0.719564,-0.719564,-0.719564,-0.719564,-0.699574,-0.679584,-0.679584,-0.659594,-0.659594,-0.659594,-0.659594,-0.659594,-0.659594,-0.659594,-0.659594,-0.639604,-0.619614,-0.619614,-0.619614,-0.599625,-0.579635,-0.599625,-0.579635,-0.579635,-0.579635,-0.579635,-0.579635,-0.559645,-0.559645,-0.559645,-0.559645,-0.519665,-0.519665,-0.519665,-0.519665,-0.519665,-0.519665,-0.519665,-0.519665,-0.519665,-0.519665,-0.479685,-0.459695,-0.459695,-0.459695,-0.459695,-0.439705,-0.419716,-0.399726,-0.419716,-0.399726,-0.379736,-0.379736,-0.379736,-0.379736,-0.379736,-0.379736,-0.379736,-0.379736,-0.379736,-0.359746,-0.359746,-0.359746,-0.359746,-0.339756,-0.339756,-0.339756,-0.339756,-0.339756,-0.339756,-0.319766,-0.319766,-0.319766,-0.299776,-0.279786,-0.279786,-0.279786,-0.299776,-0.299776,-0.299776,-0.279786,-0.299776,-0.279786,-0.259797,-0.239807,-0.219817,-0.219817,-0.219817,-0.219817,-0.219817,-0.219817,-0.199827,-0.199827,-0.199827,-0.179837,-0.199827,-0.199827,-0.199827,-0.179837,-0.179837,-0.179837,-0.179837,-0.179837,-0.179837,-0.179837,-0.179837,-0.179837,-0.179837,-0.179837,-0.179837,-0.139857,-0.119867,-0.119867,-0.0798876,-0.0798876,-0.0798876,-0.0598978,-0.0598978,-0.0399079,-0.0199181,7.18832e-05,-0.0199181,7.18832e-05,7.18832e-05,7.18832e-05,7.18832e-05,7.18832e-05,-0.0199181,-0.0199181,0.0400516,0.0600414,0.0800314,0.0800314,0.0800314,0.0800314,0.0600414,0.0800314,0.100021,0.120011,0.120011,0.120011,0.120011,0.159991,0.179981,0.179981,0.179981,0.179981,0.199971,0.999566,1.53929,2.5188,2.53879,2.5188,2.49881,2.47882,2.47882,2.45883,2.39886,1.77917,0.919606,0.499819,0.37988,0.35989,0.35989,0.35989,0.35989,0.37988,0.37988,0.37988,0.399869,0.419859,0.419859,0.459839,0.499819,0.519809,0.519809,0.499819,0.479829,0.439849,0.439849,0.459839,0.459839,0.459839,0.479829,0.459839,0.459839,0.479829,0.499819,0.499819,0.519809,0.519809,0.519809,0.539799,0.539799,0.539799,0.559788,0.559788,0.559788,0.579778,0.599768,0.579778,0.559788,0.559788,0.579778,0.599768,0.579778,0.579778,0.599768,0.619758,0.639748,0.639748,0.659738,0.659738,0.679728,0.699718,0.679728,0.699718,0.699718,0.699718,0.699718,0.699718,0.699718,0.719707,0.739697,0.739697,0.739697,0.759687,0.759687,0.799667,0.799667,0.799667,0.819657,0.819657,0.839647,0.839647,0.839647,0.859637,0.859637,0.879627,0.879627,0.859637,0.879627,0.859637,0.879627,0.879627,0.899616,0.919606,0.939596,0.939596,0.939596,0.939596,0.939596,0.959586,0.979576,0.979576,0.979576,0.979576,1.01956,1.05954,1.05954,1.05954,1.07953,1.09952,1.09952,1.07953,1.09952,1.09952,1.1195,1.1195,1.15948
