-0.200936,-0.0173562,1.34114,2.60784,2.975,2.975,2.64455,2.71799,2.7547,2.7547,2.71799,2.03874,0.588458,0.349804,0.313088,0.313088,0.331446,0.313088,0.313088,0.29473,0.276372,0.29473,0.258014,0.221298,0.239656,0.239656,0.258014,0.258014,0.258014,0.239656,0.221298,0.221298,0.184582,0.184582,0.166224,0.184582,0.20294,0.20294,0.20294,0.20294,0.221298,0.221298,0.221298,0.184582,0.20294,0.20294,0.239656,0.29473,0.313088,0.313088,0.29473,0.276372,0.258014,0.349804,0.331446,0.313088,0.38652,0.551742,0.772038,0.772038,0.772038,0.863828,1.39621,2.0571,2.13053,3.26872,2.35083,0.84547,0.790396,0.698606,0.625174,0.5701,0.441594,0.38652,0.349804,0.313088,0.29473,0.258014,0.239656,0.258014,0.258014,0.239656,0.276372,0.29473,0.331446,0.404878,0.606816,0.47831,0.515026,0.643532,0.349804,0.368162,0.38652,0.368162,0.349804,0.331446,0.368162,0.38652,0.404878,0.404878,0.368162,0.38652,0.404878,0.643532,0.533384,0.496668,0.606816,0.5701,0.404878,0.38652,0.38652,0.349804,0.349804,0.368162,0.368162,0.349804,0.349804,0.349804,0.368162,0.368162,0.368162,0.368162,0.38652,0.404878,0.38652,0.38652,0.404878,0.404878,0.404878,0.404878,0.404878,0.404878,0.404878,0.404878,0.423236,0.75368,1.32278,1.72665,1.8368,1.8368,1.81844,1.80009,1.76337,1.72665,2.31411,0.496668,0.515026,0.533384,0.533384,0.515026,0.863828,1.01069,0.515026,0.643532,0.973976,0.551742,0.551742,0.533384,0.533384,0.515026,0.515026,0.515026,0.515026,0.515026,0.533384,0.5701,0.606816,0.66189,0.698606,0.790396,0.863828,0.84547,0.93726,0.93726,0.900544,0.900544,0.84547,0.827112,0.716964,0.716964,0.66189,0.643532,0.716964,0.735322,0.716964,0.75368,0.772038,0.827112,0.882186,0.992334,0.863828,0.772038,0.827112,0.808754,0.827112,0.93726,0.992334,1.04741,0.992334,0.93726,0.918902,0.900544,0.900544,0.918902,0.827112,1.21263,1.21263,1.12084,0.863828,0.75368,0.790396,0.900544,0.827112,0.75368,0.882186,0.955618,0.93726,0.827112,2.58948,2.00202,1.87352,1.85516,2.71799,2.71799,2.64455,2.66291,2.4059,1.52472,0.808754,0.808754,0.84547,0.93726,1.04741,1.06577,0.882186,1.28606,1.43293,1.43293,1.72665,2.35083,1.91023,1.68994,1.19427,1.50636,1.61651,1.67158,1.68994,1.87352,2.09381,0.973976,1.06577,1.1392,1.43293,1.89188,1.7083,1.50636,1.28606,1.1392,1.1392,1.12084,1.06577,1.1392,1.23099,1.24935,1.23099,1.34114,1.35949,1.19427,0.973976,1.01069,0.955618,1.54307,2.33247,3.56245,3.01171,3.19529,3.15858,3.15858,3.1035,2.69963,2.1856,1.61651,0.973976,0.955618,0.955618,0.973976,0.973976,0.973976,0.992334,1.01069,1.01069,1.01069,1.01069,1.01069,1.02905,1.04741,1.04741,1.04741,1.04741,1.02905
-0.0357141,0.0560758,1.52472,2.68127,2.90157,2.90157,2.79142,2.7547,2.7547,2.58948,2.44262,1.7083,0.588458,0.331446,0.313088,0.313088,0.313088,0.29473,0.276372,0.276372,0.276372,0.276372,0.239656,0.239656,0.239656,0.239656,0.258014,0.258014,0.258014,0.258014,0.20294,0.221298,0.166224,0.166224,0.147866,0.147866,0.147866,0.147866,0.20294,0.20294,0.20294,0.20294,0.20294,0.20294,0.20294,0.221298,0.221298,0.276372,0.29473,0.29473,0.276372,0.239656,0.258014,0.38652,0.29473,0.313088,0.368162,0.38652,0.551742,0.643532,0.716964,0.863828,1.45128,2.22232,2.29575,1.94695,2.68127,0.735322,0.735322,0.66189,0.588458,0.47831,0.404878,0.349804,0.29473,0.239656,0.258014,0.239656,0.221298,0.239656,0.221298,0.239656,0.258014,0.276372,0.331446,0.313088,0.404878,0.423236,0.459952,0.496668,0.459952,0.441594,0.313088,0.349804,0.313088,0.368162,0.29473,0.38652,0.368162,0.349804,0.331446,0.349804,0.368162,0.459952,0.496668,0.331446,0.496668,0.588458,0.331446,0.38652,0.368162,0.368162,0.368162,0.349804,0.331446,0.331446,0.331446,0.349804,0.349804,0.349804,0.368162,0.368162,0.38652,0.38652,0.38652,0.38652,0.38652,0.38652,0.38652,0.38652,0.38652,0.38652,0.38652,0.38652,0.441594,1.01069,1.52472,1.76337,1.8368,1.87352,1.85516,1.85516,1.67158,1.65322,1.08412,0.75368,0.515026,0.515026,0.533384,0.515026,1.23099,2.11217,1.78173,1.41457,0.808754,0.533384,0.533384,0.533384,0.533384,0.515026,0.515026,0.515026,0.515026,0.515026,0.515026,0.533384,0.551742,0.588458,0.735322,0.772038,0.790396,0.918902,0.84547,0.882186,0.882186,0.863828,0.93726,0.84547,0.790396,0.790396,0.882186,0.790396,0.808754,0.75368,0.735322,0.735322,0.75368,0.918902,0.863828,0.75368,0.900544,0.808754,0.772038,0.827112,0.808754,1.10248,1.10248,1.15756,1.01069,0.900544,0.900544,0.882186,0.863828,0.882186,0.918902,1.10248,1.15756,0.955618,0.827112,0.790396,0.790396,0.790396,0.716964,0.827112,1.02905,1.21263,1.43293,1.52472,2.49769,2.64455,2.29575,2.1856,2.42426,2.38754,2.68127,2.60784,2.51605,0.84547,0.772038,0.808754,0.772038,0.863828,0.882186,0.882186,0.84547,0.84547,1.12084,1.39621,1.92859,2.1856,1.89188,1.63486,1.50636,1.488,1.57979,1.67158,1.74501,1.81844,1.54307,0.93726,1.19427,1.24935,1.50636,1.74501,0.918902,1.15756,0.93726,0.992334,0.992334,1.04741,1.01069,1.08412,1.24935,1.2677,1.17591,1.488,1.57979,1.43293,1.92859,2.03874,2.11217,1.96531,2.09381,2.03874,2.49769,2.66291,2.73634,2.71799,2.58948,1.76337,1.06577,0.992334,0.955618,0.955618,0.955618,0.973976,0.973976,0.973976,0.992334,1.01069,1.01069,1.01069,1.01069,1.01069,1.01069,1.02905,1.04741,1.04741,1.04741,1.02905
0.0193598,-0.0173562,1.50636,2.66291,2.88321,2.86485,2.80978,2.77306,2.11217,1.61651,1.41457,0.973976,0.331446,0.276372,0.276372,0.276372,0.258014,0.258014,0.258014,0.258014,0.276372,0.258014,0.221298,0.239656,0.239656,0.239656,0.258014,0.276372,0.276372,0.258014,0.20294,0.221298,0.147866,0.166224,0.129508,0.129508,0.129508,0.129508,0.166224,0.147866,0.166224,0.20294,0.20294,0.20294,0.221298,0.239656,0.239656,0.258014,0.276372,0.276372,0.276372,0.258014,0.276372,0.313088,0.258014,0.331446,0.404878,0.38652,0.441594,0.551742,0.66189,0.551742,1.2677,2.36918,1.96531,1.52472,0.735322,0.735322,0.84547,0.588458,0.551742,0.47831,0.38652,0.331446,0.258014,0.221298,0.20294,0.221298,0.221298,0.184582,0.20294,0.221298,0.221298,0.258014,0.313088,0.276372,0.276372,0.349804,0.47831,0.423236,0.331446,0.368162,0.349804,0.331446,0.29473,0.276372,0.313088,0.368162,0.331446,0.29473,0.349804,0.404878,0.404878,0.38652,0.47831,0.459952,0.459952,0.496668,0.404878,0.368162,0.368162,0.313088,0.313088,0.313088,0.331446,0.313088,0.313088,0.331446,0.331446,0.331446,0.349804,0.368162,0.368162,0.349804,0.349804,0.368162,0.368162,0.38652,0.38652,0.38652,0.38652,0.38652,0.38652,0.38652,0.533384,1.21263,1.63486,1.76337,1.85516,1.87352,1.92859,1.96531,2.29575,2.29575,0.47831,0.47831,0.75368,0.625174,0.643532,0.992334,1.54307,1.68994,1.41457,1.24935,0.533384,0.533384,0.551742,0.551742,0.533384,0.515026,0.533384,0.515026,0.515026,0.515026,0.496668,0.496668,0.515026,0.533384,0.588458,0.66189,0.698606,0.735322,0.75368,0.808754,0.790396,0.955618,0.84547,0.75368,0.772038,0.790396,0.790396,0.772038,0.716964,0.735322,0.75368,0.790396,0.808754,0.827112,0.808754,0.790396,0.808754,0.827112,0.84547,0.882186,1.12084,1.19427,1.35949,1.23099,0.992334,0.900544,0.900544,0.882186,0.772038,0.84547,0.918902,1.01069,0.992334,0.84547,0.75368,0.75368,0.75368,0.735322,0.790396,0.955618,1.30442,1.43293,1.50636,1.68994,2.46097,2.68127,2.33247,2.29575,2.4059,2.49769,2.58948,2.60784,1.96531,0.955618,0.790396,0.790396,0.808754,0.827112,0.808754,0.75368,0.808754,0.918902,1.08412,1.488,1.81844,2.00202,1.65322,1.67158,1.50636,1.28606,1.39621,1.68994,1.46964,1.50636,1.2677,1.02905,1.15756,1.28606,1.54307,1.52472,1.32278,0.955618,0.992334,0.992334,1.1392,1.10248,0.992334,1.02905,1.30442,1.34114,1.32278,1.61651,1.8368,2.03874,1.89188,1.87352,1.8368,2.02038,2.14889,2.11217,2.20396,2.16725,2.20396,1.96531,1.61651,1.04741,0.918902,0.93726,0.93726,0.955618,0.955618,0.973976,0.973976,0.973976,0.973976,0.992334,1.01069,1.01069,1.01069,1.01069,1.01069,1.01069,1.02905,1.04741,1.04741,1.02905
-0.586454,-0.237652,0.790396,1.8368,2.62619,2.66291,2.11217,1.57979,1.01069,0.441594,0.404878,0.38652,0.349804,0.276372,0.258014,0.258014,0.258014,0.276372,0.258014,0.276372,0.258014,0.221298,0.221298,0.239656,0.258014,0.239656,0.258014,0.276372,0.20294,0.20294,0.20294,0.184582,0.147866,0.166224,0.129508,0.129508,0.129508,0.129508,0.129508,0.11115,0.11115,0.147866,0.184582,0.20294,0.221298,0.239656,0.239656,0.239656,0.258014,0.239656,0.221298,0.221298,0.239656,0.258014,0.258014,0.331446,0.423236,0.368162,0.349804,0.496668,0.533384,0.551742,1.23099,2.44262,1.94695,1.488,0.735322,0.680248,0.698606,0.680248,0.496668,0.404878,0.38652,0.313088,0.258014,0.20294,0.147866,0.239656,0.20294,0.20294,0.20294,0.184582,0.239656,0.239656,0.368162,0.5701,0.368162,0.258014,0.276372,0.368162,0.313088,0.276372,0.331446,0.423236,0.258014,0.29473,0.331446,0.331446,0.331446,0.29473,0.38652,0.423236,0.404878,0.368162,0.368162,0.38652,0.404878,0.459952,0.38652,0.368162,0.331446,0.313088,0.29473,0.29473,0.313088,0.29473,0.313088,0.313088,0.313088,0.331446,0.349804,0.349804,0.349804,0.349804,0.349804,0.349804,0.368162,0.368162,0.38652,0.368162,0.368162,0.368162,0.368162,0.368162,0.5701,1.37785,1.72665,1.76337,1.85516,1.8368,1.78173,1.81844,1.74501,0.441594,0.900544,2.29575,0.790396,0.496668,0.496668,1.52472,1.98367,1.35949,1.28606,0.496668,0.551742,0.533384,0.533384,0.533384,0.533384,0.515026,0.515026,0.551742,0.533384,0.515026,0.496668,0.47831,0.496668,0.496668,0.515026,0.551742,0.625174,0.698606,0.735322,0.66189,0.698606,0.808754,0.790396,0.772038,0.772038,0.772038,0.790396,0.75368,0.716964,0.716964,0.716964,0.84547,0.84547,0.790396,0.772038,0.75368,0.735322,0.84547,1.01069,0.973976,1.72665,1.12084,1.57979,1.2677,0.93726,0.863828,0.882186,0.84547,0.808754,0.827112,0.84547,0.863828,0.827112,0.790396,0.772038,0.75368,0.680248,0.735322,0.790396,0.790396,1.15756,1.28606,1.67158,1.91023,2.1856,2.53441,2.38754,2.35083,2.4059,2.49769,2.58948,2.60784,1.8368,0.84547,0.790396,0.790396,0.808754,0.790396,0.790396,0.772038,0.808754,0.93726,1.12084,1.28606,1.30442,0.918902,1.10248,1.24935,1.24935,0.882186,1.06577,0.882186,1.10248,1.23099,1.19427,1.06577,1.10248,1.04741,0.900544,1.17591,1.10248,0.992334,0.973976,1.24935,1.43293,1.19427,0.973976,1.04741,1.56143,1.37785,1.28606,1.81844,1.65322,1.7083,1.72665,1.7083,1.65322,1.78173,1.74501,1.85516,1.92859,1.85516,1.8368,1.63486,1.19427,0.918902,0.918902,0.918902,0.93726,0.955618,0.955618,0.973976,0.973976,0.973976,0.973976,0.973976,0.992334,1.01069,1.01069,1.01069,1.01069,1.01069,1.01069,1.02905,1.04741,1.02905
-0.402874,-0.494664,-0.292726,0.459952,1.19427,1.32278,0.606816,0.404878,0.368162,0.349804,0.349804,0.423236,0.38652,0.258014,0.258014,0.258014,0.258014,0.276372,0.276372,0.29473,0.313088,0.276372,0.276372,0.239656,0.258014,0.239656,0.258014,0.258014,0.20294,0.221298,0.20294,0.184582,0.166224,0.166224,0.11115,0.11115,0.11115,0.129508,0.129508,0.11115,0.0927918,0.129508,0.147866,0.184582,0.221298,0.239656,0.239656,0.239656,0.239656,0.221298,0.20294,0.313088,0.276372,0.276372,0.258014,0.331446,0.38652,0.349804,0.349804,0.368162,0.404878,0.496668,0.459952,0.459952,1.06577,0.973976,0.882186,1.37785,0.625174,0.551742,0.5701,0.423236,0.368162,0.276372,0.239656,0.20294,0.166224,0.184582,0.184582,0.184582,0.166224,0.166224,0.147866,0.184582,0.29473,0.313088,0.29473,0.221298,0.258014,0.331446,0.331446,0.29473,0.221298,0.258014,0.313088,0.221298,0.258014,0.29473,0.313088,0.313088,0.276372,0.331446,0.313088,0.368162,0.349804,0.313088,0.29473,0.29473,0.38652,0.404878,0.258014,0.276372,0.276372,0.29473,0.29473,0.29473,0.29473,0.29473,0.29473,0.313088,0.331446,0.331446,0.331446,0.331446,0.331446,0.349804,0.349804,0.349804,0.368162,0.368162,0.368162,0.368162,0.38652,0.38652,0.606816,1.56143,1.7083,1.74501,1.89188,1.91023,1.89188,1.81844,1.81844,1.12084,0.459952,0.47831,2.27739,2.27739,2.27739,1.87352,1.41457,1.24935,1.04741,0.496668,0.496668,0.496668,0.515026,0.533384,0.551742,0.533384,0.515026,0.533384,0.533384,0.515026,0.496668,0.47831,0.47831,0.47831,0.47831,0.515026,0.588458,0.625174,0.625174,0.606816,0.716964,0.772038,0.75368,0.75368,0.735322,0.716964,0.716964,0.735322,0.735322,0.698606,0.808754,0.84547,0.827112,0.84547,0.735322,0.75368,0.735322,0.882186,0.863828,1.23099,1.68994,1.488,1.81844,1.28606,0.808754,0.808754,0.790396,0.772038,0.790396,0.808754,0.790396,0.790396,0.772038,0.75368,0.75368,0.75368,0.808754,0.808754,1.04741,1.21263,1.02905,1.50636,2.00202,1.24935,1.7083,1.87352,1.92859,1.94695,2.16725,2.49769,2.57112,2.47933,1.63486,0.772038,0.75368,0.75368,0.735322,0.75368,0.882186,0.772038,0.863828,1.08412,1.28606,1.08412,0.84547,0.827112,0.84547,0.992334,0.863828,0.863828,0.955618,0.992334,1.01069,1.08412,1.10248,1.04741,1.02905,0.973976,0.955618,0.955618,0.882186,0.93726,0.93726,1.41457,1.87352,1.59815,1.19427,1.19427,1.19427,1.37785,1.43293,1.50636,1.56143,1.61651,1.65322,1.59815,1.59815,1.45128,1.35949,2.02038,1.78173,1.67158,1.65322,1.43293,1.06577,0.882186,0.918902,0.918902,0.93726,0.955618,0.955618,0.973976,0.973976,0.973976,0.973976,0.973976,0.973976,0.992334,1.01069,1.01069,1.01069,1.01069,1.01069,1.04741,1.04741,1.02905
-0.237652,-0.421232,-0.182578,0.0927918,0.459952,0.47831,0.423236,0.404878,0.368162,0.349804,0.349804,0.47831,0.606816,0.496668,0.258014,0.258014,0.258014,0.276372,0.276372,0.29473,0.276372,0.258014,0.239656,0.239656,0.258014,0.221298,0.239656,0.239656,0.221298,0.221298,0.20294,0.184582,0.166224,0.147866,0.11115,0.129508,0.147866,0.129508,0.11115,0.0927918,0.0927918,0.11115,0.129508,0.166224,0.20294,0.221298,0.221298,0.221298,0.221298,0.20294,0.147866,0.239656,0.258014,0.276372,0.29473,0.29473,0.331446,0.313088,0.258014,0.331446,0.349804,0.404878,0.368162,0.459952,0.5701,0.515026,0.496668,0.5701,0.66189,0.515026,0.404878,0.331446,0.349804,0.239656,0.221298,0.20294,0.184582,0.184582,0.166224,0.166224,0.184582,0.147866,0.147866,0.147866,0.184582,0.147866,0.313088,0.221298,0.147866,0.258014,0.258014,0.20294,0.184582,0.239656,0.239656,0.29473,0.221298,0.276372,0.331446,0.29473,0.29473,0.331446,0.258014,0.331446,0.331446,0.276372,0.29473,0.258014,0.258014,0.258014,0.258014,0.258014,0.258014,0.276372,0.276372,0.276372,0.29473,0.29473,0.29473,0.313088,0.313088,0.313088,0.331446,0.331446,0.331446,0.349804,0.349804,0.349804,0.368162,0.349804,0.349804,0.368162,0.38652,0.551742,0.992334,1.7083,1.7083,1.72665,2.00202,2.09381,1.98367,1.91023,1.87352,0.423236,0.441594,0.47831,0.496668,0.47831,1.8368,1.37785,1.17591,0.47831,0.47831,0.496668,0.496668,0.515026,0.496668,0.496668,0.496668,0.515026,0.515026,0.496668,0.533384,0.533384,0.496668,0.47831,0.459952,0.459952,0.47831,0.496668,0.496668,0.515026,0.515026,0.625174,0.735322,0.772038,0.735322,0.735322,0.75368,0.716964,0.827112,0.75368,0.698606,0.75368,0.973976,0.84547,0.808754,0.790396,0.75368,0.75368,0.735322,0.84547,0.75368,1.35949,1.63486,1.43293,1.54307,1.39621,0.84547,0.75368,0.84547,0.790396,0.772038,0.827112,0.75368,0.790396,0.772038,0.716964,0.716964,0.735322,0.84547,0.75368,0.808754,1.17591,1.52472,1.39621,2.03874,1.72665,1.21263,1.43293,1.54307,1.59815,2.00202,2.44262,2.49769,2.31411,1.488,0.827112,0.75368,0.75368,0.75368,1.04741,1.30442,1.41457,1.39621,1.7083,1.76337,1.04741,0.827112,0.827112,0.84547,0.84547,0.918902,0.882186,0.93726,0.93726,0.973976,1.02905,1.01069,0.992334,0.973976,0.93726,0.918902,0.900544,0.882186,0.918902,0.918902,1.65322,2.27739,2.14889,1.74501,1.59815,1.35949,1.37785,1.45128,1.46964,1.52472,1.52472,1.45128,1.28606,1.08412,1.15756,1.23099,1.57979,1.57979,1.56143,1.54307,1.2677,0.973976,0.882186,0.918902,0.918902,0.93726,0.955618,0.955618,0.973976,0.973976,0.973976,0.973976,0.973976,0.973976,0.973976,0.992334,1.01069,1.01069,1.01069,1.01069,1.01069,1.01069,1.01069
0.0193598,-0.274368,-0.0173562,0.221298,0.38652,0.423236,0.423236,0.38652,0.368162,0.331446,0.331446,0.625174,0.93726,0.973976,1.34114,0.258014,0.258014,0.276372,0.276372,0.276372,0.258014,0.221298,0.239656,0.239656,0.258014,0.184582,0.239656,0.20294,0.166224,0.221298,0.184582,0.166224,0.166224,0.147866,0.11115,0.129508,0.11115,0.0744338,0.0744338,0.0927918,0.0744338,0.129508,0.147866,0.166224,0.184582,0.20294,0.20294,0.20294,0.20294,0.184582,0.184582,0.221298,0.221298,0.20294,0.276372,0.368162,0.331446,0.258014,0.276372,0.29473,0.29473,0.313088,0.313088,0.331446,0.368162,0.441594,0.625174,0.533384,0.496668,0.423236,0.349804,0.368162,0.349804,0.276372,0.258014,0.184582,0.184582,0.147866,0.166224,0.166224,0.166224,0.147866,0.129508,0.129508,0.147866,0.166224,0.331446,0.496668,0.29473,0.258014,0.20294,0.184582,0.184582,0.20294,0.166224,0.221298,0.184582,0.258014,0.276372,0.313088,0.29473,0.313088,0.276372,0.276372,0.258014,0.221298,0.239656,0.258014,0.239656,0.221298,0.239656,0.258014,0.258014,0.276372,0.276372,0.276372,0.29473,0.29473,0.29473,0.313088,0.313088,0.313088,0.313088,0.313088,0.313088,0.331446,0.331446,0.331446,0.331446,0.331446,0.349804,0.368162,0.368162,0.368162,0.772038,1.17591,1.54307,1.72665,1.87352,2.00202,2.0571,1.96531,1.91023,1.06577,0.588458,0.441594,0.496668,1.81844,1.56143,1.34114,0.900544,0.698606,0.5701,0.47831,0.47831,0.47831,0.47831,0.47831,0.515026,0.533384,0.496668,0.496668,0.496668,0.496668,0.459952,0.459952,0.441594,0.459952,0.459952,0.459952,0.47831,0.459952,0.47831,0.551742,0.66189,0.735322,0.680248,0.735322,0.735322,0.75368,0.75368,0.75368,0.790396,0.918902,0.900544,0.772038,0.772038,0.716964,0.735322,0.75368,0.790396,0.918902,1.17591,1.7083,1.63486,1.63486,1.67158,1.34114,0.790396,0.698606,0.680248,0.716964,0.84547,0.973976,0.84547,0.827112,0.698606,0.75368,0.75368,0.772038,0.772038,0.882186,1.1392,1.37785,1.23099,1.19427,1.57979,1.43293,1.35949,1.35949,1.34114,1.30442,1.59815,1.87352,2.03874,1.85516,1.35949,1.1392,1.30442,1.32278,1.46964,1.35949,1.59815,2.07546,2.38754,2.29575,1.91023,1.04741,0.808754,0.790396,0.863828,0.955618,1.17591,1.08412,0.900544,0.973976,1.01069,1.01069,0.955618,0.918902,0.900544,0.900544,0.900544,0.900544,0.900544,0.918902,0.955618,2.38754,2.49769,2.02038,2.07546,1.92859,1.81844,1.61651,1.50636,1.488,1.41457,1.41457,1.28606,1.19427,1.17591,1.21263,1.24935,1.45128,1.50636,1.488,1.45128,1.04741,0.882186,0.882186,0.918902,0.918902,0.93726,0.955618,0.955618,0.955618,0.955618,0.955618,0.973976,0.973976,0.973976,0.973976,0.973976,0.992334,1.01069,1.01069,1.01069,1.01069,1.01069,0.992334
0.551742,0.00100183,0.221298,0.349804,0.404878,0.441594,0.459952,0.47831,0.349804,0.29473,0.331446,0.735322,1.19427,1.41457,1.08412,0.331446,0.258014,0.276372,0.276372,0.258014,0.221298,0.239656,0.258014,0.239656,0.239656,0.221298,0.276372,0.184582,0.129508,0.20294,0.239656,0.184582,0.184582,0.147866,0.129508,0.129508,0.147866,0.0744338,0.11115,0.129508,0.184582,0.166224,0.184582,0.166224,0.166224,0.184582,0.20294,0.221298,0.221298,0.184582,0.20294,0.221298,0.221298,0.221298,0.276372,0.331446,0.38652,0.258014,0.258014,0.221298,0.221298,0.239656,0.258014,0.276372,0.404878,0.29473,0.331446,0.349804,0.47831,0.441594,0.313088,0.258014,0.29473,0.349804,0.258014,0.184582,0.147866,0.20294,0.11115,0.129508,0.147866,0.147866,0.129508,0.129508,0.11115,0.11115,0.221298,0.147866,0.349804,0.221298,0.20294,0.184582,0.184582,0.166224,0.184582,0.20294,0.20294,0.221298,0.368162,0.258014,0.331446,0.29473,0.258014,0.239656,0.258014,0.221298,0.20294,0.221298,0.221298,0.221298,0.239656,0.258014,0.258014,0.276372,0.258014,0.258014,0.258014,0.258014,0.276372,0.29473,0.29473,0.29473,0.29473,0.29473,0.29473,0.313088,0.313088,0.313088,0.331446,0.331446,0.349804,0.349804,0.349804,0.349804,0.423236,1.06577,0.827112,1.2677,1.78173,1.91023,2.0571,2.07546,1.61651,0.404878,0.827112,1.17591,1.76337,1.56143,1.30442,0.47831,0.459952,0.459952,0.459952,0.47831,0.47831,0.47831,0.47831,0.47831,0.47831,0.533384,0.459952,0.459952,0.47831,0.496668,0.459952,0.441594,0.441594,0.441594,0.459952,0.441594,0.441594,0.441594,0.47831,0.47831,0.533384,0.625174,0.680248,0.66189,0.66189,0.735322,0.716964,0.735322,0.84547,0.863828,0.900544,0.75368,0.790396,0.75368,0.772038,0.772038,0.808754,0.882186,0.955618,0.75368,0.772038,0.790396,1.57979,1.08412,0.84547,0.66189,0.772038,0.808754,0.955618,0.992334,0.992334,0.882186,0.955618,0.808754,0.75368,0.790396,1.15756,0.772038,1.30442,1.32278,0.992334,1.06577,0.900544,1.17591,1.19427,1.08412,0.973976,1.01069,0.992334,0.93726,1.19427,1.28606,1.34114,1.37785,1.45128,1.50636,1.57979,1.76337,1.46964,2.16725,2.35083,2.47933,2.16725,0.772038,0.93726,0.808754,1.01069,1.39621,1.78173,1.23099,0.918902,1.01069,1.06577,1.01069,0.918902,0.900544,0.900544,0.900544,0.900544,0.900544,0.93726,0.882186,1.45128,1.85516,2.42426,1.08412,2.91992,1.59815,1.92859,1.80009,1.45128,1.30442,1.23099,1.08412,1.08412,1.15756,1.19427,1.24935,1.28606,1.35949,1.28606,1.19427,0.84547,0.84547,0.882186,0.882186,0.918902,0.918902,0.93726,0.955618,0.955618,0.93726,0.93726,0.955618,0.973976,0.973976,0.973976,0.973976,0.973976,0.992334,1.01069,1.01069,1.01069,1.01069,1.01069,0.992334
0.680248,0.515026,0.459952,0.404878,0.38652,0.423236,0.441594,0.38652,0.29473,0.20294,0.368162,1.1392,1.63486,1.72665,1.56143,0.992334,0.459952,0.38652,0.38652,0.349804,0.29473,0.349804,0.368162,0.313088,0.258014,0.221298,0.20294,0.129508,0.129508,0.166224,0.11115,0.147866,0.184582,0.11115,0.0927918,0.0377178,0.11115,0.166224,0.184582,0.166224,0.166224,0.166224,0.147866,0.147866,0.147866,0.184582,0.20294,0.221298,0.239656,0.221298,0.20294,0.221298,0.221298,0.239656,0.276372,0.313088,0.276372,0.20294,0.239656,0.221298,0.20294,0.184582,0.221298,0.276372,0.29473,0.313088,0.29473,0.29473,0.368162,0.349804,0.29473,0.258014,0.258014,0.276372,0.313088,0.147866,0.11115,0.11115,0.0744338,0.11115,0.129508,0.129508,0.129508,0.0927918,0.11115,0.147866,0.147866,0.166224,0.0927918,0.184582,0.184582,0.184582,0.184582,0.166224,0.184582,0.20294,0.221298,0.239656,0.258014,0.276372,0.276372,0.276372,0.221298,0.184582,0.184582,0.20294,0.20294,0.221298,0.221298,0.221298,0.239656,0.258014,0.258014,0.239656,0.239656,0.239656,0.258014,0.258014,0.258014,0.276372,0.276372,0.29473,0.29473,0.29473,0.29473,0.313088,0.313088,0.313088,0.331446,0.331446,0.349804,0.349804,0.349804,0.459952,0.625174,1.02905,1.54307,1.57979,1.67158,1.80009,1.91023,2.02038,2.09381,0.66189,1.01069,1.7083,1.65322,1.32278,0.496668,0.47831,0.47831,0.47831,0.47831,0.459952,0.459952,0.459952,0.459952,0.459952,0.47831,0.496668,0.496668,0.47831,0.459952,0.459952,0.459952,0.441594,0.423236,0.423236,0.441594,0.441594,0.441594,0.441594,0.441594,0.441594,0.47831,0.515026,0.533384,0.588458,0.680248,0.680248,0.643532,0.735322,0.75368,0.772038,0.735322,0.716964,0.75368,0.772038,0.790396,0.75368,0.827112,0.735322,0.735322,0.735322,0.75368,0.827112,0.808754,0.716964,0.75368,0.66189,0.698606,0.790396,0.827112,0.735322,0.716964,0.790396,0.698606,0.772038,0.716964,1.06577,1.89188,1.43293,1.23099,0.918902,1.12084,0.955618,1.02905,1.08412,0.918902,0.84547,0.735322,0.735322,0.735322,0.772038,0.772038,0.955618,1.34114,1.39621,1.39621,1.39621,1.41457,1.24935,1.39621,1.87352,1.98367,2.38754,1.8368,1.35949,1.24935,1.1392,1.72665,2.42426,2.1856,1.61651,1.30442,1.24935,1.08412,1.01069,0.918902,0.882186,0.882186,0.863828,0.882186,0.973976,0.973976,0.973976,1.91023,2.0571,2.22232,2.47933,2.25904,1.57979,1.91023,1.68994,1.2677,1.1392,1.08412,1.08412,1.08412,1.1392,1.19427,1.15756,1.28606,1.15756,1.04741,0.84547,0.84547,0.84547,0.882186,0.882186,0.900544,0.918902,0.900544,0.918902,0.900544,0.955618,0.93726,0.955618,0.955618,0.955618,0.973976,0.973976,0.973976,0.973976,0.992334,1.01069,1.01069,0.992334,0.992334,0.992334
1.28606,0.790396,0.29473,0.423236,0.368162,0.404878,0.496668,0.5701,0.75368,1.37785,1.23099,1.92859,2.00202,2.00202,1.98367,1.56143,1.12084,0.93726,0.918902,0.863828,0.882186,0.643532,0.459952,0.368162,0.29473,0.221298,0.20294,0.129508,0.129508,0.184582,0.0744338,0.129508,0.11115,0.0744338,0.0744338,0.0927918,0.0744338,0.368162,0.258014,0.221298,0.166224,0.166224,0.147866,0.147866,0.166224,0.20294,0.221298,0.221298,0.258014,0.221298,0.20294,0.20294,0.221298,0.258014,0.29473,0.29473,0.258014,0.20294,0.221298,0.221298,0.459952,0.20294,0.29473,0.29473,0.313088,0.29473,0.258014,0.221298,0.29473,0.29473,0.258014,0.239656,0.221298,0.239656,0.20294,0.147866,0.0927918,0.0744338,0.0744338,0.0927918,0.11115,0.129508,0.129508,0.11115,0.129508,0.129508,0.147866,0.129508,0.11115,0.129508,0.129508,0.166224,0.20294,0.166224,0.11115,0.184582,0.20294,0.221298,0.239656,0.276372,0.221298,0.221298,0.184582,0.184582,0.20294,0.20294,0.20294,0.20294,0.20294,0.20294,0.221298,0.221298,0.221298,0.221298,0.239656,0.239656,0.258014,0.258014,0.258014,0.276372,0.276372,0.29473,0.276372,0.276372,0.29473,0.29473,0.276372,0.29473,0.313088,0.313088,0.331446,0.331446,0.368162,0.496668,0.643532,0.790396,1.52472,1.56143,1.59815,1.67158,1.76337,1.92859,2.00202,2.03874,1.89188,1.67158,1.2677,0.643532,0.515026,0.441594,0.459952,0.459952,0.459952,0.459952,0.459952,0.459952,0.459952,0.459952,0.459952,0.459952,0.441594,0.441594,0.441594,0.441594,0.441594,0.441594,0.441594,0.423236,0.423236,0.423236,0.423236,0.441594,0.441594,0.441594,0.423236,0.47831,0.496668,0.533384,0.588458,0.606816,0.551742,0.66189,0.643532,0.643532,0.66189,0.698606,0.75368,0.716964,0.735322,0.772038,0.643532,0.66189,0.735322,0.790396,0.698606,0.698606,0.680248,0.680248,0.680248,0.716964,0.735322,0.790396,0.863828,0.808754,0.716964,0.716964,0.716964,0.75368,0.772038,1.1392,1.89188,1.45128,1.56143,1.28606,1.15756,1.04741,0.918902,0.716964,0.790396,0.75368,0.716964,0.735322,0.735322,0.75368,0.75368,0.973976,1.34114,1.34114,1.34114,1.32278,1.2677,1.34114,1.46964,1.72665,1.81844,1.65322,1.92859,1.68994,1.56143,0.84547,2.47933,1.85516,2.31411,2.36918,1.94695,1.37785,0.918902,1.01069,0.918902,0.918902,0.900544,0.918902,0.918902,1.15756,1.78173,3.30544,1.08412,2.00202,2.25904,2.33247,2.09381,1.65322,1.89188,1.46964,1.01069,1.17591,1.1392,1.04741,1.08412,1.10248,1.08412,0.955618,0.827112,0.93726,0.900544,0.93726,0.84547,0.863828,0.863828,0.882186,0.882186,0.863828,0.918902,0.900544,0.918902,0.93726,0.93726,0.93726,0.93726,0.93726,0.93726,0.973976,0.973976,0.973976,0.973976,0.973976,0.973976,0.955618,0.992334,0.992334
1.52472,1.57979,0.863828,0.29473,0.368162,0.368162,0.551742,0.918902,1.37785,1.68994,1.21263,2.36918,2.09381,2.0571,2.00202,1.78173,1.76337,1.57979,1.52472,1.30442,1.10248,0.423236,0.441594,0.313088,0.331446,0.276372,0.20294,0.331446,0.716964,0.404878,0.0927918,0.129508,0.0744338,0.0377178,0.0560758,0.0560758,0.11115,0.239656,0.239656,0.221298,0.184582,0.166224,0.147866,0.166224,0.184582,0.221298,0.221298,0.221298,0.258014,0.221298,0.184582,0.184582,0.184582,0.258014,0.368162,0.47831,0.716964,1.37785,2.975,2.1856,1.488,0.735322,0.221298,0.166224,0.258014,0.276372,0.276372,0.239656,0.239656,0.258014,0.276372,0.258014,0.239656,0.221298,0.20294,0.166224,0.166224,0.20294,0.221298,0.0560758,0.0744338,0.147866,0.129508,0.129508,0.0744338,0.0744338,0.11115,0.11115,0.11115,0.129508,0.129508,0.147866,0.276372,0.184582,0.184582,0.147866,0.184582,0.20294,0.258014,0.258014,0.239656,0.221298,0.20294,0.184582,0.221298,0.184582,0.184582,0.184582,0.184582,0.20294,0.20294,0.221298,0.221298,0.221298,0.239656,0.239656,0.258014,0.258014,0.258014,0.258014,0.258014,0.258014,0.258014,0.258014,0.258014,0.258014,0.276372,0.276372,0.29473,0.313088,0.313088,0.313088,0.313088,0.47831,0.698606,1.01069,0.918902,1.08412,1.04741,1.59815,1.63486,1.76337,1.85516,1.91023,1.46964,1.24935,1.21263,0.441594,0.459952,0.441594,0.441594,0.459952,0.441594,0.441594,0.441594,0.441594,0.441594,0.459952,0.459952,0.47831,0.459952,0.459952,0.441594,0.441594,0.441594,0.423236,0.423236,0.423236,0.423236,0.423236,0.423236,0.423236,0.423236,0.441594,0.441594,0.47831,0.496668,0.533384,0.515026,0.515026,0.515026,0.643532,0.551742,0.5701,0.606816,0.606816,0.625174,0.625174,0.716964,0.698606,0.588458,0.606816,0.66189,0.66189,0.606816,0.606816,0.643532,0.643532,0.772038,0.84547,0.75368,0.735322,0.735322,0.698606,0.698606,0.625174,0.716964,0.772038,0.918902,1.50636,2.11217,1.96531,1.7083,1.35949,1.02905,0.992334,0.863828,0.75368,0.790396,0.735322,0.698606,0.75368,0.735322,0.75368,0.75368,0.808754,1.17591,1.2677,1.28606,1.2677,1.23099,1.12084,1.21263,2.44262,2.22232,1.92859,1.94695,2.14889,1.57979,1.19427,1.91023,1.34114,1.76337,2.09381,1.87352,1.45128,1.02905,1.04741,0.918902,0.84547,0.900544,0.882186,0.918902,1.12084,1.15756,1.08412,1.12084,1.63486,2.1856,1.08412,2.51605,1.63486,1.43293,1.02905,1.04741,1.10248,1.10248,1.08412,1.02905,1.06577,0.973976,0.918902,0.827112,0.827112,0.84547,0.863828,0.84547,0.84547,0.84547,0.84547,0.863828,0.863828,0.863828,0.863828,0.900544,0.918902,0.93726,0.955618,0.955618,0.93726,0.93726,0.973976,0.973976,0.973976,0.973976,0.973976,0.973976,0.992334,0.992334,0.992334
0.00100183,0.313088,0.533384,0.313088,0.368162,0.368162,0.533384,0.698606,0.258014,1.8368,1.46964,2.38754,2.03874,1.98367,1.85516,1.81844,2.22232,2.33247,2.35083,1.74501,1.78173,0.625174,0.441594,0.368162,0.38652,0.349804,0.331446,0.625174,1.24935,0.625174,0.166224,0.184582,0.0377178,0.0560758,0.0744338,0.0744338,0.129508,0.20294,0.20294,0.20294,0.184582,0.166224,0.147866,0.184582,0.20294,0.20294,0.20294,0.221298,0.276372,0.20294,0.166224,0.166224,0.147866,0.20294,0.533384,1.04741,1.52472,2.16725,2.51605,2.42426,2.0571,0.20294,0.47831,0.38652,0.313088,0.258014,0.221298,0.239656,0.258014,0.239656,0.221298,0.239656,0.258014,0.20294,0.166224,0.166224,0.129508,0.147866,0.129508,0.0744338,0.0927918,0.129508,0.129508,0.0927918,0.0744338,0.11115,0.11115,0.11115,0.0927918,0.0744338,0.11115,0.0927918,0.147866,0.184582,0.258014,0.221298,0.11115,0.166224,0.166224,0.221298,0.20294,0.184582,0.166224,0.129508,0.147866,0.147866,0.166224,0.184582,0.184582,0.20294,0.20294,0.221298,0.20294,0.221298,0.221298,0.221298,0.221298,0.221298,0.221298,0.221298,0.239656,0.239656,0.258014,0.258014,0.258014,0.258014,0.276372,0.29473,0.313088,0.313088,0.313088,0.863828,1.19427,1.28606,1.41457,1.46964,1.488,1.52472,1.54307,1.56143,1.57979,1.63486,1.56143,1.54307,1.19427,0.918902,0.790396,0.38652,0.441594,0.423236,0.423236,0.423236,0.423236,0.459952,0.441594,0.441594,0.441594,0.441594,0.441594,0.459952,0.459952,0.441594,0.423236,0.423236,0.423236,0.423236,0.423236,0.423236,0.404878,0.404878,0.423236,0.441594,0.441594,0.441594,0.459952,0.459952,0.515026,0.496668,0.496668,0.496668,0.47831,0.496668,0.515026,0.515026,0.551742,0.588458,0.5701,0.533384,0.5701,0.5701,0.551742,0.588458,0.551742,0.551742,0.515026,0.5701,0.5701,0.643532,0.790396,0.790396,0.735322,0.643532,0.66189,0.680248,0.698606,0.680248,0.75368,0.900544,1.34114,1.91023,1.72665,1.76337,1.50636,1.1392,0.84547,0.75368,0.84547,0.827112,0.808754,0.735322,0.716964,0.735322,0.735322,0.75368,0.772038,0.882186,0.992334,1.08412,1.15756,1.23099,1.21263,1.19427,1.46964,2.14889,2.69963,2.38754,1.52472,1.59815,1.41457,1.76337,1.7083,1.488,1.89188,1.78173,1.96531,1.87352,1.41457,1.06577,1.02905,1.35949,0.918902,0.93726,0.973976,1.04741,0.93726,1.23099,1.17591,1.32278,1.488,1.23099,0.863828,0.93726,0.93726,1.02905,1.02905,1.04741,1.02905,0.992334,0.900544,0.808754,0.882186,0.882186,0.84547,0.827112,0.84547,0.84547,0.84547,0.84547,0.84547,0.827112,0.84547,0.863828,0.882186,0.863828,0.900544,0.900544,0.900544,0.918902,0.93726,0.93726,0.918902,0.973976,1.02905,1.01069,0.955618,0.955618,0.955618,0.955618,0.992334,0.992334
0.0193598,-0.0907881,0.239656,0.331446,0.349804,0.349804,0.368162,0.349804,0.313088,1.61651,0.129508,1.52472,1.7083,1.34114,1.32278,1.35949,2.4059,2.69963,3.41559,2.38754,1.54307,2.71799,1.19427,0.551742,0.404878,0.404878,0.221298,0.239656,1.24935,1.46964,0.93726,0.11115,0.0377178,0.0927918,0.0927918,0.11115,0.166224,0.239656,0.184582,0.166224,0.147866,0.129508,0.129508,0.166224,0.184582,0.184582,0.184582,0.166224,0.184582,0.184582,0.147866,0.166224,0.129508,0.129508,0.588458,1.34114,1.85516,2.0571,2.07546,2.22232,1.89188,0.698606,0.863828,0.588458,0.239656,0.239656,0.258014,0.221298,0.221298,0.221298,0.184582,0.166224,0.221298,0.129508,0.129508,0.129508,0.129508,0.11115,0.11115,0.0927918,0.184582,0.129508,0.0560758,0.0927918,0.0744338,0.0927918,0.0927918,0.0927918,0.0927918,0.0927918,0.0927918,0.129508,0.0927918,0.166224,0.258014,0.20294,0.20294,0.184582,0.166224,0.184582,0.20294,0.11115,0.129508,0.147866,0.147866,0.166224,0.166224,0.184582,0.184582,0.184582,0.20294,0.20294,0.184582,0.184582,0.184582,0.20294,0.20294,0.221298,0.221298,0.239656,0.239656,0.239656,0.258014,0.258014,0.258014,0.258014,0.276372,0.29473,0.313088,0.313088,0.441594,0.606816,0.900544,1.17591,1.39621,1.43293,1.46964,1.488,1.50636,1.52472,1.45128,1.39621,1.32278,1.32278,1.54307,0.38652,0.38652,0.38652,0.38652,0.404878,0.38652,0.38652,0.423236,0.441594,0.441594,0.441594,0.441594,0.459952,0.441594,0.459952,0.459952,0.423236,0.423236,0.404878,0.404878,0.404878,0.404878,0.404878,0.404878,0.404878,0.404878,0.404878,0.441594,0.441594,0.459952,0.47831,0.47831,0.459952,0.423236,0.533384,0.496668,0.515026,0.533384,0.551742,0.551742,0.551742,0.533384,0.47831,0.515026,0.533384,0.515026,0.515026,0.533384,0.515026,0.515026,0.496668,0.533384,0.551742,0.606816,0.680248,0.790396,0.643532,0.772038,0.772038,0.735322,0.735322,0.827112,1.06577,1.63486,1.63486,1.56143,1.80009,1.1392,0.955618,0.918902,0.918902,0.93726,0.882186,0.827112,0.772038,0.735322,0.75368,0.790396,0.808754,0.808754,0.882186,0.918902,0.973976,1.01069,1.01069,1.08412,1.2677,1.67158,2.02038,1.7083,1.67158,1.39621,1.488,1.45128,1.54307,1.65322,1.85516,1.98367,1.96531,2.20396,2.00202,1.39621,1.04741,0.93726,1.488,1.1392,1.06577,1.02905,1.02905,0.992334,1.08412,1.04741,0.790396,0.918902,0.84547,0.882186,0.84547,0.900544,0.992334,0.992334,1.01069,0.93726,0.900544,0.882186,0.808754,0.863828,0.84547,0.827112,0.827112,0.827112,0.827112,0.827112,0.84547,0.84547,0.827112,0.827112,0.84547,0.863828,0.863828,0.882186,0.863828,0.900544,0.900544,0.918902,0.93726,0.918902,0.918902,0.973976,0.992334,0.955618,0.955618,0.955618,0.973976,0.992334,0.992334
-0.678244,-0.3478,0.0560758,0.166224,-0.0357141,0.221298,0.239656,0.221298,0.20294,0.5701,0.129508,1.04741,1.1392,0.698606,0.0744338,0.66189,1.72665,2.90157,2.95664,2.51605,2.79142,2.91992,1.21263,0.459952,0.331446,0.20294,1.02905,3.98469,1.89188,2.20396,3.92961,1.10248,0.129508,0.147866,0.129508,0.147866,0.184582,0.184582,0.129508,0.129508,0.129508,0.11115,0.0744338,0.129508,0.184582,0.184582,0.184582,0.166224,0.258014,0.20294,0.166224,0.166224,0.129508,0.129508,0.423236,1.23099,1.7083,1.80009,1.72665,1.96531,2.49769,1.46964,1.01069,0.75368,0.20294,0.221298,0.239656,0.184582,0.147866,0.258014,0.313088,0.368162,0.258014,0.184582,0.0744338,0.129508,0.129508,0.129508,0.129508,0.0927918,0.11115,0.166224,0.38652,0.20294,0.0927918,0.0744338,0.0744338,0.0927918,0.11115,0.11115,0.129508,0.129508,0.129508,0.166224,0.184582,0.20294,0.166224,0.166224,0.147866,0.0927918,0.11115,0.11115,0.129508,0.147866,0.147866,0.166224,0.166224,0.166224,0.166224,0.166224,0.166224,0.166224,0.166224,0.184582,0.184582,0.20294,0.20294,0.221298,0.221298,0.239656,0.239656,0.239656,0.239656,0.221298,0.239656,0.258014,0.276372,0.29473,0.29473,0.331446,0.423236,0.258014,0.900544,0.93726,1.24935,1.1392,1.08412,1.32278,1.488,1.50636,1.50636,1.35949,1.21263,1.08412,1.04741,0.716964,0.643532,0.551742,0.47831,0.423236,0.404878,0.38652,0.404878,0.404878,0.404878,0.423236,0.423236,0.423236,0.423236,0.459952,0.459952,0.423236,0.423236,0.404878,0.404878,0.404878,0.38652,0.38652,0.38652,0.404878,0.423236,0.423236,0.459952,0.459952,0.459952,0.47831,0.496668,0.38652,0.441594,0.441594,0.496668,0.515026,0.515026,0.5701,0.533384,0.533384,0.533384,0.533384,0.606816,0.533384,0.533384,0.515026,0.533384,0.515026,0.515026,0.515026,0.533384,0.5701,0.5701,0.625174,0.551742,0.588458,0.900544,0.75368,0.735322,0.827112,0.790396,0.75368,1.35949,1.46964,1.65322,1.80009,0.735322,0.973976,1.04741,0.918902,1.10248,0.75368,0.84547,0.808754,0.75368,0.808754,0.84547,0.882186,0.882186,0.882186,0.900544,0.93726,0.93726,0.882186,0.93726,1.12084,1.488,1.89188,1.85516,1.87352,1.63486,1.52472,1.41457,1.24935,1.35949,1.78173,2.7547,1.7083,1.488,1.43293,1.23099,1.02905,1.21263,1.78173,1.24935,1.04741,1.10248,1.12084,0.900544,0.973976,0.882186,0.790396,0.75368,0.790396,0.827112,0.827112,0.882186,0.955618,0.882186,0.790396,0.790396,0.808754,0.863828,0.808754,0.808754,0.808754,0.808754,0.808754,0.808754,0.808754,0.808754,0.827112,0.84547,0.827112,0.827112,0.84547,0.863828,0.863828,0.863828,0.84547,0.882186,0.900544,0.900544,0.918902,0.918902,0.918902,0.973976,0.973976,0.955618,0.955618,0.955618,0.955618,0.973976,0.973976
-0.311084,-0.292726,0.00100183,0.11115,-0.0357141,0.166224,0.129508,0.11115,0.20294,0.258014,0.0560758,0.625174,0.588458,0.625174,0.0744338,0.166224,0.900544,1.78173,1.61651,1.37785,1.01069,0.973976,0.221298,0.38652,0.29473,0.166224,0.0560758,1.56143,2.35083,2.00202,2.91992,1.74501,0.349804,0.166224,0.11115,0.11115,0.0927918,0.11115,0.0560758,0.147866,0.129508,0.0927918,0.0560758,0.0560758,0.0927918,0.166224,0.184582,0.184582,0.20294,0.184582,0.147866,0.184582,0.11115,0.11115,0.239656,0.93726,1.24935,1.7083,1.72665,1.87352,2.44262,1.50636,1.08412,1.41457,0.698606,0.423236,0.29473,0.221298,0.258014,0.147866,0.258014,0.221298,0.349804,0.184582,0.184582,0.166224,0.147866,0.129508,0.0927918,0.0927918,0.0560758,0.0560758,0.313088,0.239656,0.0193598,0.0560758,0.0744338,0.0927918,0.11115,0.129508,0.147866,0.147866,0.147866,0.147866,0.129508,0.147866,0.184582,0.20294,0.147866,0.11115,0.11115,0.129508,0.147866,0.147866,0.147866,0.147866,0.147866,0.147866,0.147866,0.147866,0.166224,0.166224,0.166224,0.184582,0.184582,0.20294,0.20294,0.20294,0.20294,0.20294,0.20294,0.20294,0.20294,0.221298,0.239656,0.239656,0.258014,0.258014,0.258014,0.258014,0.258014,0.258014,0.276372,0.441594,0.973976,1.23099,1.37785,1.24935,1.1392,1.17591,1.34114,1.06577,0.863828,0.331446,0.331446,0.331446,0.423236,0.441594,0.404878,0.38652,0.368162,0.368162,0.368162,0.404878,0.404878,0.423236,0.404878,0.38652,0.38652,0.423236,0.423236,0.423236,0.404878,0.404878,0.404878,0.404878,0.38652,0.38652,0.38652,0.38652,0.404878,0.423236,0.423236,0.423236,0.459952,0.441594,0.441594,0.404878,0.459952,0.459952,0.515026,0.496668,0.47831,0.5701,0.496668,0.533384,0.496668,0.459952,0.47831,0.515026,0.515026,0.515026,0.515026,0.515026,0.515026,0.533384,0.551742,0.551742,0.5701,0.625174,0.606816,0.66189,0.75368,0.735322,0.716964,0.66189,0.66189,0.643532,0.643532,0.882186,1.1392,1.68994,0.882186,0.900544,0.973976,0.75368,1.04741,0.882186,0.863828,0.84547,0.863828,0.84547,0.882186,0.900544,0.882186,0.863828,0.882186,0.955618,0.973976,1.01069,0.955618,0.973976,1.1392,1.32278,1.63486,1.78173,1.41457,1.24935,1.12084,0.992334,0.84547,0.882186,0.827112,0.772038,0.900544,1.02905,0.973976,1.02905,1.01069,0.992334,1.04741,0.882186,0.882186,0.882186,0.827112,0.808754,0.735322,0.716964,0.735322,0.735322,0.735322,0.790396,0.808754,0.863828,0.75368,0.772038,0.790396,0.808754,0.808754,0.808754,0.808754,0.790396,0.790396,0.790396,0.808754,0.808754,0.808754,0.827112,0.84547,0.827112,0.827112,0.84547,0.84547,0.84547,0.863828,0.84547,0.84547,0.882186,0.882186,0.882186,0.882186,0.918902,0.93726,0.93726,0.93726,0.955618,0.955618,0.955618,0.955618,0.992334
-0.219294,-0.292726,-0.0907881,0.00100183,-0.0173562,0.0377178,0.0560758,0.00100183,0.0927918,0.0927918,0.0927918,0.331446,0.29473,0.349804,0.20294,0.20294,0.643532,0.808754,0.625174,0.239656,0.11115,0.368162,0.0377178,0.258014,0.184582,0.0927918,-0.0173562,0.973976,2.86485,2.14889,3.92961,2.62619,0.75368,0.129508,0.0744338,0.129508,0.11115,0.0927918,0.0927918,0.11115,0.11115,0.0744338,0.0377178,0.00100183,0.0377178,0.11115,0.166224,0.184582,0.184582,0.20294,0.258014,0.166224,0.129508,0.0927918,0.166224,1.08412,0.166224,1.54307,1.85516,1.43293,1.80009,1.04741,1.28606,1.34114,0.84547,0.551742,0.313088,0.20294,0.166224,0.129508,0.239656,0.276372,0.239656,0.147866,0.166224,0.166224,0.147866,0.129508,0.147866,0.129508,0.166224,0.258014,0.496668,0.184582,0.0193598,0.0560758,0.0744338,0.0927918,0.11115,0.129508,0.166224,0.166224,0.166224,0.129508,0.166224,0.184582,0.184582,0.11115,0.11115,0.129508,0.11115,0.129508,0.147866,0.129508,0.129508,0.129508,0.129508,0.129508,0.147866,0.147866,0.166224,0.166224,0.166224,0.166224,0.166224,0.166224,0.166224,0.166224,0.166224,0.184582,0.184582,0.184582,0.20294,0.221298,0.239656,0.239656,0.258014,0.258014,0.258014,0.276372,0.276372,0.276372,0.349804,0.588458,0.882186,0.992334,1.15756,1.28606,1.37785,1.28606,1.04741,1.12084,0.863828,0.47831,0.423236,0.331446,0.331446,0.331446,0.331446,0.349804,0.331446,0.331446,0.349804,0.368162,0.38652,0.423236,0.423236,0.404878,0.404878,0.38652,0.404878,0.404878,0.38652,0.38652,0.38652,0.38652,0.38652,0.38652,0.38652,0.38652,0.38652,0.404878,0.38652,0.404878,0.423236,0.459952,0.423236,0.404878,0.441594,0.496668,0.441594,0.515026,0.515026,0.496668,0.588458,0.441594,0.47831,0.496668,0.496668,0.496668,0.533384,0.533384,0.533384,0.533384,0.533384,0.533384,0.551742,0.643532,0.625174,0.716964,0.827112,0.716964,0.698606,0.716964,0.716964,0.716964,0.698606,0.698606,0.625174,1.06577,0.863828,0.772038,0.808754,0.625174,0.66189,0.827112,0.973976,1.02905,0.808754,0.827112,0.808754,0.808754,0.955618,0.918902,0.882186,0.84547,0.882186,0.955618,0.93726,0.882186,0.973976,0.992334,0.973976,0.955618,1.1392,1.28606,1.19427,0.992334,0.863828,0.955618,0.84547,0.808754,0.808754,0.84547,0.900544,0.918902,0.863828,0.808754,0.790396,0.772038,0.735322,0.75368,0.716964,0.735322,0.66189,0.680248,0.698606,0.680248,0.698606,0.698606,0.716964,0.735322,0.716964,0.772038,0.75368,0.772038,0.772038,0.772038,0.772038,0.790396,0.808754,0.790396,0.790396,0.790396,0.808754,0.808754,0.808754,0.808754,0.827112,0.827112,0.827112,0.827112,0.827112,0.827112,0.84547,0.84547,0.84547,0.84547,0.84547,0.84547,0.882186,0.900544,0.900544,0.918902,0.918902,0.93726,0.955618,0.955618,0.955618,0.992334
-0.0724301,-0.0540721,-0.16422,-0.0357141,-0.0173562,-0.0540721,-0.0540721,-0.0173562,0.0193598,0.0377178,0.0744338,-0.0357141,0.00100183,0.11115,0.129508,0.0744338,0.29473,0.404878,0.349804,0.147866,0.0744338,0.0560758,0.11115,0.0927918,0.0377178,0.0560758,0.11115,0.00100183,2.55276,3.43395,3.59917,2.69963,0.606816,0.0744338,0.0927918,0.129508,0.0927918,0.0744338,0.0560758,0.0744338,0.0927918,0.0377178,0.00100183,-0.0357141,-0.0173562,0.0744338,0.147866,0.147866,0.166224,0.20294,0.221298,0.258014,0.147866,0.0744338,0.349804,0.735322,0.184582,1.35949,1.59815,1.56143,1.24935,1.19427,0.992334,0.221298,0.66189,0.515026,0.349804,0.221298,0.166224,0.166224,0.239656,0.239656,0.239656,0.166224,0.184582,0.166224,0.184582,0.147866,0.147866,0.166224,0.258014,0.313088,0.11115,0.11115,0.0560758,0.0744338,0.0927918,0.0927918,0.11115,0.147866,0.166224,0.147866,0.166224,0.0377178,0.129508,0.166224,0.0927918,0.11115,0.129508,0.129508,0.11115,0.0927918,0.0927918,0.11115,0.129508,0.129508,0.129508,0.129508,0.147866,0.147866,0.147866,0.129508,0.147866,0.129508,0.147866,0.147866,0.147866,0.166224,0.166224,0.184582,0.184582,0.184582,0.20294,0.221298,0.239656,0.239656,0.258014,0.239656,0.239656,0.239656,0.276372,0.276372,0.313088,0.459952,0.716964,0.680248,0.93726,0.992334,1.1392,1.08412,1.06577,1.02905,0.680248,0.459952,0.368162,0.331446,0.349804,0.349804,0.349804,0.349804,0.331446,0.331446,0.331446,0.349804,0.368162,0.38652,0.38652,0.38652,0.38652,0.38652,0.404878,0.404878,0.38652,0.38652,0.38652,0.368162,0.368162,0.368162,0.38652,0.404878,0.404878,0.38652,0.368162,0.368162,0.423236,0.441594,0.404878,0.38652,0.38652,0.38652,0.441594,0.459952,0.459952,0.349804,0.515026,0.551742,0.404878,0.496668,0.533384,0.606816,0.551742,0.533384,0.533384,0.533384,0.533384,0.551742,0.606816,0.698606,0.735322,0.716964,0.716964,0.698606,0.698606,0.716964,0.716964,0.698606,0.698606,0.716964,0.790396,1.12084,0.606816,0.66189,0.588458,0.625174,0.735322,0.827112,0.955618,0.955618,0.772038,0.84547,0.680248,0.790396,0.900544,0.882186,0.863828,0.827112,0.863828,0.84547,0.790396,0.827112,0.918902,0.918902,0.992334,0.918902,0.882186,0.93726,0.992334,1.01069,0.93726,0.900544,0.808754,0.735322,0.716964,0.735322,0.716964,0.716964,0.808754,0.716964,0.643532,0.625174,0.66189,0.643532,0.680248,0.680248,0.66189,0.66189,0.643532,0.66189,0.66189,0.66189,0.698606,0.716964,0.716964,0.716964,0.735322,0.75368,0.735322,0.772038,0.772038,0.772038,0.790396,0.790396,0.790396,0.790396,0.808754,0.808754,0.808754,0.808754,0.827112,0.827112,0.84547,0.84547,0.827112,0.827112,0.863828,0.84547,0.84547,0.84547,0.863828,0.863828,0.882186,0.882186,0.882186,0.918902,0.918902,0.93726,0.93726,0.93726,0.955618,0.973976
-0.182578,-0.494664,-0.219294,-0.127504,-0.127504,-0.109146,-0.0724301,-0.0540721,0.00100183,-0.0357141,0.0377178,-0.0357141,-0.0540721,-0.0724301,-0.0540721,-0.0724301,-0.0357141,0.0744338,0.129508,0.11115,0.184582,0.00100183,0.0744338,-0.0540721,-0.0540721,-0.0357141,0.0193598,0.29473,-0.0724301,3.92961,3.3238,2.03874,0.313088,0.0377178,0.0560758,0.0927918,0.0744338,0.0193598,0.0377178,0.0927918,0.0377178,-0.0173562,-0.0173562,-0.0540721,-0.0357141,0.0560758,0.11115,0.11115,0.11115,0.258014,0.221298,0.221298,0.166224,0.129508,0.258014,0.0377178,0.643532,1.59815,1.32278,1.41457,1.94695,1.04741,1.04741,0.808754,0.5701,0.423236,0.331446,0.239656,0.221298,0.239656,0.313088,0.404878,0.276372,0.221298,0.221298,0.239656,0.20294,0.184582,0.129508,0.184582,0.166224,0.184582,0.129508,0.129508,0.11115,0.11115,0.11115,0.11115,0.129508,0.129508,0.11115,0.11115,0.129508,0.0744338,0.0744338,0.11115,0.11115,0.129508,0.129508,0.0927918,0.0744338,0.0744338,0.0927918,0.11115,0.129508,0.129508,0.129508,0.129508,0.129508,0.11115,0.11115,0.129508,0.129508,0.129508,0.147866,0.147866,0.147866,0.166224,0.166224,0.184582,0.184582,0.184582,0.20294,0.221298,0.221298,0.239656,0.239656,0.221298,0.20294,0.221298,0.20294,0.20294,0.20294,0.221298,0.221298,0.221298,0.239656,0.313088,0.900544,0.900544,0.625174,0.258014,0.459952,0.258014,0.29473,0.29473,0.313088,0.313088,0.331446,0.331446,0.331446,0.331446,0.331446,0.349804,0.349804,0.368162,0.368162,0.368162,0.331446,0.368162,0.38652,0.38652,0.38652,0.38652,0.38652,0.368162,0.368162,0.349804,0.368162,0.368162,0.404878,0.38652,0.368162,0.368162,0.368162,0.423236,0.404878,0.38652,0.38652,0.38652,0.423236,0.441594,0.38652,0.331446,0.496668,0.349804,0.423236,0.459952,0.533384,0.588458,0.515026,0.533384,0.551742,0.551742,0.551742,0.5701,0.588458,0.606816,0.625174,0.643532,0.698606,0.643532,0.698606,0.75368,0.735322,0.716964,0.698606,0.735322,0.75368,0.735322,0.698606,0.680248,0.680248,0.66189,0.680248,0.772038,0.955618,1.24935,1.35949,0.900544,0.735322,0.827112,0.863828,0.84547,0.84547,0.863828,0.808754,0.698606,0.772038,0.808754,0.772038,0.900544,0.900544,0.863828,0.84547,0.827112,0.808754,0.75368,0.75368,0.735322,0.698606,0.588458,0.588458,0.625174,0.643532,0.680248,0.625174,0.66189,0.643532,0.643532,0.643532,0.643532,0.643532,0.66189,0.66189,0.66189,0.643532,0.66189,0.66189,0.66189,0.698606,0.698606,0.680248,0.716964,0.716964,0.735322,0.735322,0.772038,0.75368,0.772038,0.790396,0.772038,0.790396,0.790396,0.808754,0.808754,0.808754,0.808754,0.808754,0.808754,0.827112,0.84547,0.827112,0.827112,0.863828,0.84547,0.84547,0.84547,0.84547,0.863828,0.863828,0.882186,0.882186,0.918902,0.918902,0.918902,0.918902,0.918902,0.955618,0.955618
-0.16422,-0.457948,-0.237652,-0.16422,-0.182578,-0.16422,-0.182578,-0.145862,-0.16422,-0.109146,-0.145862,-0.0907881,-0.127504,-0.127504,-0.127504,-0.145862,-0.127504,-0.0724301,-0.0724301,0.11115,0.00100183,-0.0173562,-0.0540721,-0.0907881,-0.109146,-0.109146,-0.109146,-0.0907881,-0.0724301,3.08514,2.66291,1.2677,0.129508,0.00100183,0.0560758,0.0560758,0.0560758,0.0560758,0.0193598,0.0193598,0.0377178,-0.0357141,-0.0173562,-0.0724301,-0.0724301,0.0560758,0.0377178,0.0377178,0.129508,0.20294,0.184582,0.0560758,0.258014,0.184582,0.20294,0.0377178,0.863828,1.43293,1.41457,1.89188,2.13053,2.07546,1.04741,0.551742,0.313088,0.221298,0.221298,0.239656,0.258014,0.276372,0.276372,0.29473,0.29473,0.29473,0.258014,0.258014,0.239656,0.20294,0.166224,0.221298,0.20294,0.184582,0.129508,0.147866,0.129508,0.147866,0.129508,0.147866,0.129508,0.129508,0.147866,0.129508,0.0560758,0.0744338,0.184582,0.147866,0.11115,0.11115,0.0744338,0.0560758,0.0744338,0.0744338,0.0927918,0.11115,0.129508,0.129508,0.0744338,0.0927918,0.0927918,0.11115,0.11115,0.129508,0.129508,0.129508,0.147866,0.147866,0.147866,0.166224,0.166224,0.166224,0.184582,0.184582,0.184582,0.184582,0.184582,0.184582,0.184582,0.184582,0.20294,0.20294,0.20294,0.20294,0.221298,0.239656,0.239656,0.239656,0.258014,0.258014,0.258014,0.258014,0.276372,0.258014,0.258014,0.258014,0.258014,0.276372,0.276372,0.276372,0.276372,0.29473,0.29473,0.29473,0.313088,0.331446,0.331446,0.368162,0.368162,0.368162,0.331446,0.331446,0.331446,0.331446,0.349804,0.368162,0.368162,0.368162,0.368162,0.368162,0.349804,0.349804,0.38652,0.368162,0.368162,0.368162,0.368162,0.368162,0.38652,0.368162,0.368162,0.368162,0.38652,0.404878,0.38652,0.331446,0.331446,0.368162,0.404878,0.441594,0.496668,0.47831,0.533384,0.5701,0.588458,0.5701,0.588458,0.5701,0.551742,0.496668,0.606816,0.551742,0.588458,0.588458,0.680248,0.735322,0.716964,0.698606,0.735322,0.680248,0.606816,0.588458,0.790396,0.84547,0.808754,0.698606,0.625174,0.772038,0.680248,1.04741,1.23099,0.698606,0.827112,0.918902,0.863828,0.790396,0.790396,0.772038,0.680248,0.680248,0.66189,0.698606,0.735322,0.772038,0.790396,0.808754,0.606816,0.643532,0.680248,0.680248,0.66189,0.533384,0.606816,0.515026,0.588458,0.5701,0.606816,0.643532,0.625174,0.643532,0.643532,0.643532,0.643532,0.643532,0.643532,0.66189,0.66189,0.66189,0.643532,0.643532,0.643532,0.643532,0.66189,0.680248,0.680248,0.698606,0.716964,0.716964,0.735322,0.735322,0.75368,0.772038,0.772038,0.772038,0.790396,0.790396,0.808754,0.808754,0.808754,0.808754,0.808754,0.808754,0.827112,0.84547,0.827112,0.827112,0.808754,0.808754,0.808754,0.808754,0.827112,0.84547,0.827112,0.882186,0.882186,0.918902,0.918902,0.918902,0.918902,0.900544,0.955618,0.955618
-0.604812,-0.421232,-0.25601,-0.200936,-0.219294,-0.200936,-0.200936,-0.182578,-0.182578,-0.16422,-0.16422,-0.219294,-0.16422,-0.16422,-0.16422,-0.16422,-0.145862,-0.109146,-0.109146,-0.0724301,-0.109146,-0.109146,-0.16422,-0.145862,-0.127504,-0.109146,-0.127504,-0.127504,0.11115,-0.127504,-0.127504,0.166224,0.0560758,0.0193598,0.00100183,0.00100183,-0.0357141,-0.0173562,-0.0724301,0.0193598,-0.0357141,-0.0173562,0.00100183,-0.0724301,-0.0357141,0.0377178,0.11115,0.147866,0.147866,0.166224,0.147866,0.129508,0.184582,0.147866,0.147866,0.0560758,0.441594,0.0193598,0.900544,0.955618,0.0744338,0.625174,0.11115,0.29473,0.184582,0.20294,0.221298,0.239656,0.239656,0.258014,0.29473,0.313088,0.29473,0.331446,0.29473,0.313088,0.239656,0.276372,0.258014,0.221298,0.221298,0.29473,0.276372,0.184582,0.147866,0.129508,0.129508,0.129508,0.11115,0.147866,0.129508,0.129508,0.0560758,0.11115,0.129508,0.0927918,0.0744338,0.0560758,0.0377178,0.0560758,0.0744338,0.0744338,0.0927918,0.0927918,0.0927918,0.0927918,0.0744338,0.0927918,0.0927918,0.11115,0.11115,0.129508,0.129508,0.129508,0.129508,0.11115,0.129508,0.147866,0.147866,0.166224,0.166224,0.166224,0.166224,0.166224,0.166224,0.184582,0.20294,0.20294,0.20294,0.20294,0.184582,0.184582,0.184582,0.184582,0.20294,0.221298,0.258014,0.258014,0.331446,0.313088,0.313088,0.276372,0.313088,0.276372,0.276372,0.276372,0.29473,0.29473,0.29473,0.313088,0.29473,0.29473,0.276372,0.276372,0.313088,0.313088,0.313088,0.331446,0.331446,0.349804,0.349804,0.331446,0.331446,0.349804,0.349804,0.349804,0.349804,0.349804,0.349804,0.349804,0.349804,0.368162,0.368162,0.368162,0.38652,0.38652,0.38652,0.368162,0.349804,0.331446,0.349804,0.349804,0.349804,0.349804,0.349804,0.349804,0.38652,0.47831,0.459952,0.47831,0.515026,0.496668,0.5701,0.515026,0.496668,0.496668,0.5701,0.515026,0.533384,0.47831,0.459952,0.5701,0.716964,0.790396,0.643532,0.66189,0.625174,0.680248,0.66189,1.19427,1.06577,1.06577,0.900544,0.66189,0.680248,0.772038,0.882186,0.992334,1.1392,1.39621,0.698606,0.75368,0.808754,0.680248,0.625174,0.643532,0.625174,0.606816,0.625174,0.606816,0.643532,0.5701,0.551742,0.588458,0.533384,0.515026,0.496668,0.496668,0.551742,0.533384,0.533384,0.533384,0.5701,0.588458,0.606816,0.625174,0.625174,0.643532,0.66189,0.66189,0.643532,0.66189,0.643532,0.643532,0.643532,0.643532,0.643532,0.643532,0.643532,0.625174,0.625174,0.66189,0.66189,0.680248,0.698606,0.716964,0.735322,0.735322,0.735322,0.75368,0.75368,0.75368,0.772038,0.790396,0.808754,0.790396,0.790396,0.790396,0.790396,0.790396,0.808754,0.790396,0.808754,0.808754,0.827112,0.808754,0.827112,0.827112,0.827112,0.84547,0.827112,0.882186,0.882186,0.882186,0.918902,0.918902,0.918902,0.900544,0.918902,0.955618
-0.25601,-0.25601,-0.237652,-0.219294,-0.219294,-0.219294,-0.219294,-0.219294,-0.219294,-0.200936,-0.219294,-0.219294,-0.16422,-0.182578,-0.182578,-0.16422,-0.145862,-0.16422,-0.200936,-0.182578,-0.182578,-0.16422,-0.16422,-0.145862,-0.145862,-0.182578,-0.16422,-0.145862,-0.145862,-0.127504,-0.145862,-0.0724301,-0.109146,-0.145862,-0.0907881,-0.127504,-0.0907881,-0.0540721,-0.0357141,-0.127504,0.882186,0.331446,-0.0724301,-0.0724301,-0.0724301,0.00100183,0.0927918,0.129508,0.0744338,0.0927918,0.0744338,0.0560758,0.0744338,0.0377178,0.0744338,0.0927918,0.0193598,0.221298,0.533384,0.496668,0.47831,0.38652,0.368162,0.276372,0.147866,0.221298,0.239656,0.239656,0.221298,0.221298,0.313088,0.313088,0.551742,0.955618,0.221298,0.313088,0.239656,0.221298,0.221298,0.184582,0.184582,0.129508,0.166224,0.184582,0.129508,0.129508,0.147866,0.0927918,0.0744338,0.0377178,0.0377178,0.0560758,0.0560758,0.0560758,0.0377178,0.0377178,0.0377178,0.0377178,0.0560758,0.0560758,0.0744338,0.0744338,0.0744338,0.0560758,0.0560758,0.0744338,0.0744338,0.0927918,0.0927918,0.11115,0.11115,0.129508,0.0927918,0.0927918,0.0927918,0.0927918,0.11115,0.129508,0.147866,0.147866,0.147866,0.166224,0.166224,0.166224,0.166224,0.184582,0.20294,0.166224,0.147866,0.129508,0.147866,0.147866,0.147866,0.166224,0.166224,0.184582,0.221298,0.276372,0.276372,0.276372,0.276372,0.276372,0.258014,0.239656,0.221298,0.239656,0.258014,0.239656,0.29473,0.313088,0.313088,0.29473,0.29473,0.29473,0.29473,0.276372,0.276372,0.29473,0.313088,0.313088,0.349804,0.331446,0.349804,0.349804,0.349804,0.331446,0.331446,0.349804,0.349804,0.349804,0.38652,0.368162,0.368162,0.368162,0.349804,0.349804,0.38652,0.368162,0.349804,0.331446,0.331446,0.313088,0.331446,0.331446,0.349804,0.349804,0.404878,0.441594,0.423236,0.441594,0.459952,0.5701,0.533384,0.496668,0.38652,0.459952,0.496668,0.459952,0.423236,0.441594,0.423236,0.459952,0.588458,0.551742,0.515026,0.606816,0.588458,0.588458,0.698606,0.882186,1.34114,1.02905,0.84547,0.588458,0.47831,0.625174,0.808754,1.1392,1.46964,1.67158,0.680248,0.735322,0.643532,0.533384,0.496668,0.515026,0.515026,0.515026,0.533384,0.533384,0.551742,0.533384,0.496668,0.47831,0.515026,0.515026,0.515026,0.515026,0.533384,0.533384,0.533384,0.533384,0.5701,0.5701,0.606816,0.643532,0.643532,0.66189,0.643532,0.716964,0.625174,0.625174,0.625174,0.625174,0.643532,0.625174,0.625174,0.606816,0.625174,0.625174,0.625174,0.66189,0.643532,0.66189,0.680248,0.716964,0.716964,0.716964,0.735322,0.735322,0.735322,0.75368,0.772038,0.790396,0.790396,0.772038,0.772038,0.772038,0.772038,0.772038,0.808754,0.790396,0.790396,0.808754,0.808754,0.808754,0.808754,0.808754,0.808754,0.84547,0.827112,0.882186,0.882186,0.863828,0.900544,0.918902,0.918902,0.900544,0.900544,0.955618
-0.25601,-0.476306,-0.329442,-0.274368,-0.25601,-0.274368,-0.25601,-0.25601,-0.237652,-0.237652,-0.219294,-0.219294,-0.200936,-0.200936,-0.200936,-0.182578,-0.182578,-0.200936,-0.200936,-0.182578,-0.16422,-0.16422,-0.182578,-0.16422,-0.200936,-0.182578,-0.16422,-0.145862,-0.16422,-0.200936,-0.200936,-0.182578,-0.182578,-0.145862,-0.145862,-0.127504,-0.127504,-0.145862,-0.0173562,0.239656,0.5701,0.349804,0.0560758,-0.0724301,-0.109146,-0.0907881,-0.0907881,-0.0173562,-0.0540721,-0.0540721,-0.0540721,-0.0357141,-0.0173562,0.00100183,-0.0173562,0.0193598,0.0377178,0.0560758,0.166224,0.166224,0.11115,0.184582,0.20294,0.258014,0.129508,0.29473,0.221298,0.276372,0.349804,0.29473,0.239656,0.20294,1.61651,1.24935,0.258014,0.20294,0.20294,0.166224,0.166224,0.184582,0.129508,0.147866,0.129508,0.147866,0.129508,0.11115,0.0927918,0.0927918,0.0377178,0.0377178,0.0560758,0.0560758,0.0377178,0.0193598,0.00100183,0.0193598,0.0193598,0.0377178,0.0560758,0.0560758,0.0560758,0.0377178,0.0377178,0.0377178,0.0560758,0.0744338,0.0744338,0.0927918,0.0927918,0.11115,0.11115,0.0927918,0.0744338,0.0744338,0.0927918,0.0927918,0.11115,0.129508,0.147866,0.147866,0.147866,0.166224,0.166224,0.11115,0.147866,0.166224,0.184582,0.147866,0.129508,0.129508,0.129508,0.147866,0.147866,0.166224,0.166224,0.166224,0.20294,0.184582,0.184582,0.184582,0.184582,0.184582,0.184582,0.184582,0.20294,0.20294,0.20294,0.221298,0.29473,0.29473,0.29473,0.29473,0.276372,0.29473,0.29473,0.29473,0.313088,0.313088,0.276372,0.276372,0.313088,0.313088,0.331446,0.349804,0.349804,0.331446,0.331446,0.349804,0.349804,0.368162,0.368162,0.368162,0.368162,0.368162,0.331446,0.349804,0.368162,0.368162,0.349804,0.331446,0.331446,0.313088,0.313088,0.313088,0.313088,0.331446,0.331446,0.331446,0.349804,0.331446,0.368162,0.441594,0.38652,0.331446,0.331446,0.38652,0.38652,0.38652,0.368162,0.404878,0.404878,0.423236,0.441594,0.441594,0.47831,0.551742,0.5701,0.5701,0.5701,0.625174,0.423236,0.441594,0.551742,0.441594,0.47831,0.459952,0.808754,1.32278,1.56143,1.488,1.04741,0.863828,0.423236,0.423236,0.496668,0.47831,0.459952,0.441594,0.441594,0.459952,0.459952,0.496668,0.496668,0.47831,0.496668,0.515026,0.515026,0.515026,0.533384,0.551742,0.5701,0.606816,0.588458,0.588458,0.606816,0.625174,0.643532,0.625174,0.625174,0.643532,0.625174,0.606816,0.625174,0.606816,0.588458,0.588458,0.606816,0.606816,0.606816,0.606816,0.625174,0.66189,0.66189,0.66189,0.680248,0.698606,0.716964,0.716964,0.735322,0.735322,0.735322,0.75368,0.772038,0.772038,0.772038,0.735322,0.75368,0.772038,0.772038,0.772038,0.790396,0.790396,0.790396,0.790396,0.790396,0.790396,0.808754,0.808754,0.790396,0.84547,0.84547,0.863828,0.863828,0.863828,0.863828,0.863828,0.882186,0.900544,0.900544,0.955618
-0.476306,-0.53138,-0.3478,-0.292726,-0.292726,-0.292726,-0.274368,-0.25601,-0.237652,-0.219294,-0.219294,-0.237652,-0.237652,-0.237652,-0.237652,-0.237652,-0.219294,-0.219294,-0.200936,-0.200936,-0.200936,-0.219294,-0.200936,-0.200936,-0.200936,-0.200936,-0.182578,-0.182578,-0.219294,-0.200936,-0.200936,-0.200936,-0.219294,-0.219294,-0.200936,-0.16422,-0.16422,-0.16422,-0.0357141,0.276372,0.551742,0.184582,-0.0357141,-0.127504,-0.109146,-0.109146,-0.127504,-0.109146,-0.109146,-0.0173562,-0.0357141,-0.0724301,0.0193598,0.0193598,0.00100183,-0.0173562,-0.0357141,-0.0173562,-0.0173562,0.0193598,0.0193598,0.0927918,0.147866,0.221298,0.166224,0.0744338,0.166224,0.166224,0.20294,0.20294,0.258014,0.166224,0.129508,0.166224,0.166224,0.184582,0.166224,0.166224,0.221298,0.129508,0.147866,0.0744338,0.0927918,0.0927918,0.0927918,0.0744338,0.0560758,0.0193598,0.0193598,0.0377178,0.0377178,0.0377178,0.00100183,0.00100183,0.00100183,0.0193598,0.0193598,0.0377178,0.0560758,0.0377178,0.0377178,0.0193598,0.0377178,0.0377178,0.0560758,0.0744338,0.0744338,0.0927918,0.0927918,0.0927918,0.0744338,0.0744338,0.0560758,0.0744338,0.0927918,0.0927918,0.11115,0.129508,0.147866,0.147866,0.147866,0.147866,0.129508,0.0927918,0.11115,0.129508,0.11115,0.11115,0.129508,0.129508,0.129508,0.147866,0.147866,0.166224,0.166224,0.166224,0.20294,0.20294,0.20294,0.20294,0.20294,0.20294,0.20294,0.20294,0.20294,0.221298,0.221298,0.221298,0.221298,0.239656,0.258014,0.258014,0.239656,0.239656,0.258014,0.276372,0.29473,0.313088,0.29473,0.276372,0.276372,0.29473,0.29473,0.239656,0.239656,0.276372,0.331446,0.349804,0.349804,0.349804,0.349804,0.368162,0.38652,0.38652,0.349804,0.331446,0.331446,0.331446,0.331446,0.331446,0.331446,0.313088,0.313088,0.29473,0.29473,0.313088,0.313088,0.313088,0.313088,0.349804,0.331446,0.349804,0.29473,0.29473,0.331446,0.313088,0.368162,0.349804,0.349804,0.368162,0.368162,0.38652,0.404878,0.441594,0.496668,0.47831,0.459952,0.404878,0.368162,0.404878,0.38652,0.368162,0.423236,0.404878,0.441594,0.459952,0.918902,1.41457,1.65322,1.45128,0.918902,0.643532,0.47831,0.441594,0.404878,0.441594,0.441594,0.441594,0.423236,0.441594,0.441594,0.459952,0.496668,0.47831,0.515026,0.533384,0.533384,0.533384,0.533384,0.551742,0.551742,0.5701,0.588458,0.551742,0.588458,0.588458,0.606816,0.588458,0.625174,0.625174,0.606816,0.588458,0.588458,0.588458,0.588458,0.588458,0.606816,0.606816,0.606816,0.606816,0.625174,0.625174,0.643532,0.643532,0.680248,0.680248,0.698606,0.698606,0.716964,0.735322,0.735322,0.735322,0.75368,0.735322,0.735322,0.735322,0.735322,0.75368,0.772038,0.75368,0.772038,0.772038,0.790396,0.772038,0.772038,0.772038,0.790396,0.808754,0.808754,0.84547,0.827112,0.827112,0.84547,0.827112,0.84547,0.863828,0.882186,0.900544,0.900544,0.900544
-0.457948,-0.421232,-0.292726,-0.274368,-0.292726,-0.274368,-0.274368,-0.25601,-0.237652,-0.219294,-0.237652,-0.25601,-0.25601,-0.25601,-0.25601,-0.237652,-0.219294,-0.219294,-0.200936,-0.219294,-0.237652,-0.237652,-0.219294,-0.219294,-0.219294,-0.219294,-0.219294,-0.219294,-0.219294,-0.200936,-0.219294,-0.219294,-0.219294,-0.219294,-0.200936,-0.16422,-0.16422,-0.16422,-0.0724301,-0.182578,-0.182578,-0.16422,-0.109146,-0.127504,-0.145862,-0.145862,-0.145862,-0.127504,-0.109146,-0.0907881,-0.127504,-0.109146,-0.0724301,-0.145862,-0.0540721,-0.0540721,-0.0357141,-0.0540721,-0.0540721,0.0560758,0.239656,0.20294,0.129508,0.331446,0.147866,0.147866,0.147866,0.11115,0.129508,0.11115,0.166224,0.184582,0.166224,0.11115,0.147866,0.147866,0.147866,0.11115,0.11115,0.129508,0.147866,0.0744338,0.0377178,0.0560758,0.0560758,0.0377178,0.0193598,0.0193598,0.0193598,0.0193598,0.00100183,0.00100183,0.00100183,0.00100183,0.00100183,0.0193598,0.0193598,0.0193598,0.0193598,0.0193598,0.0193598,0.0193598,0.0377178,0.0377178,0.0560758,0.0744338,0.0744338,0.0744338,0.0560758,0.0560758,0.0560758,0.0560758,0.0560758,0.0927918,0.0927918,0.0927918,0.11115,0.129508,0.129508,0.11115,0.0927918,0.0927918,0.0927918,0.0927918,0.11115,0.11115,0.129508,0.129508,0.129508,0.129508,0.129508,0.147866,0.147866,0.147866,0.147866,0.166224,0.184582,0.20294,0.20294,0.184582,0.166224,0.147866,0.147866,0.147866,0.184582,0.184582,0.221298,0.239656,0.239656,0.239656,0.239656,0.239656,0.221298,0.221298,0.221298,0.239656,0.258014,0.276372,0.258014,0.276372,0.29473,0.29473,0.29473,0.258014,0.239656,0.239656,0.29473,0.349804,0.368162,0.313088,0.313088,0.349804,0.38652,0.404878,0.368162,0.331446,0.331446,0.331446,0.331446,0.313088,0.313088,0.29473,0.313088,0.29473,0.29473,0.29473,0.29473,0.29473,0.313088,0.29473,0.29473,0.29473,0.29473,0.29473,0.313088,0.313088,0.313088,0.331446,0.331446,0.349804,0.349804,0.368162,0.38652,0.423236,0.404878,0.368162,0.349804,0.349804,0.368162,0.349804,0.368162,0.368162,0.368162,0.404878,0.441594,0.459952,1.01069,1.45128,1.61651,1.32278,1.01069,0.606816,0.441594,0.423236,0.423236,0.423236,0.423236,0.441594,0.423236,0.441594,0.459952,0.459952,0.496668,0.496668,0.496668,0.515026,0.515026,0.515026,0.533384,0.551742,0.551742,0.551742,0.533384,0.515026,0.515026,0.5701,0.5701,0.551742,0.588458,0.588458,0.606816,0.588458,0.5701,0.5701,0.5701,0.588458,0.606816,0.606816,0.606816,0.606816,0.625174,0.625174,0.643532,0.643532,0.643532,0.680248,0.698606,0.698606,0.716964,0.716964,0.716964,0.716964,0.716964,0.716964,0.698606,0.735322,0.735322,0.75368,0.772038,0.75368,0.75368,0.75368,0.75368,0.772038,0.772038,0.772038,0.772038,0.808754,0.808754,0.84547,0.790396,0.827112,0.84547,0.827112,0.84547,0.863828,0.882186,0.863828,0.84547,0.900544
-0.3478,-0.311084,-0.292726,-0.311084,-0.292726,-0.292726,-0.274368,-0.25601,-0.237652,-0.237652,-0.25601,-0.274368,-0.274368,-0.274368,-0.25601,-0.237652,-0.219294,-0.219294,-0.219294,-0.25601,-0.25601,-0.237652,-0.219294,-0.219294,-0.219294,-0.219294,-0.237652,-0.219294,-0.219294,-0.219294,-0.219294,-0.237652,-0.219294,-0.219294,-0.200936,-0.182578,-0.16422,-0.145862,-0.127504,-0.200936,-0.16422,-0.127504,-0.145862,-0.145862,-0.182578,-0.16422,-0.145862,-0.127504,-0.127504,-0.145862,-0.145862,-0.145862,-0.145862,-0.145862,-0.0907881,-0.0357141,-0.0540721,-0.0724301,-0.0540721,-0.0173562,-0.0724301,0.0560758,0.0377178,0.0927918,0.0193598,0.0744338,0.20294,0.0560758,0.0193598,0.0560758,0.0744338,0.0927918,0.0927918,0.0744338,0.0927918,0.11115,0.0927918,0.0927918,0.0377178,0.0560758,0.0560758,0.0193598,0.0377178,0.0193598,0.0193598,0.00100183,0.00100183,0.00100183,0.00100183,0.00100183,-0.0357141,-0.0173562,0.00100183,0.00100183,0.00100183,0.00100183,-0.0173562,-0.0173562,0.00100183,0.00100183,0.0193598,0.0193598,0.0377178,0.0377178,0.0560758,0.0560758,0.0377178,0.0377178,0.0377178,0.0377178,0.0377178,0.0377178,0.0560758,0.0744338,0.0744338,0.0744338,0.0744338,0.0744338,0.0744338,0.0744338,0.0744338,0.0927918,0.0927918,0.11115,0.11115,0.11115,0.129508,0.0927918,0.0927918,0.0927918,0.11115,0.129508,0.129508,0.166224,0.147866,0.147866,0.147866,0.129508,0.11115,0.11115,0.11115,0.11115,0.129508,0.147866,0.147866,0.147866,0.20294,0.20294,0.20294,0.221298,0.221298,0.221298,0.221298,0.239656,0.221298,0.221298,0.239656,0.221298,0.239656,0.258014,0.276372,0.313088,0.29473,0.258014,0.239656,0.239656,0.258014,0.38652,0.349804,0.349804,0.313088,0.313088,0.423236,0.423236,0.368162,0.331446,0.331446,0.331446,0.331446,0.313088,0.29473,0.276372,0.29473,0.29473,0.29473,0.29473,0.276372,0.29473,0.29473,0.29473,0.29473,0.276372,0.276372,0.29473,0.276372,0.276372,0.29473,0.313088,0.331446,0.331446,0.349804,0.368162,0.38652,0.38652,0.349804,0.331446,0.313088,0.331446,0.349804,0.349804,0.368162,0.368162,0.38652,0.38652,0.404878,0.533384,0.973976,1.56143,1.12084,0.772038,0.29473,0.423236,0.38652,0.404878,0.404878,0.404878,0.423236,0.423236,0.423236,0.441594,0.441594,0.441594,0.459952,0.459952,0.47831,0.496668,0.515026,0.515026,0.515026,0.515026,0.515026,0.515026,0.533384,0.515026,0.515026,0.5701,0.551742,0.551742,0.551742,0.5701,0.588458,0.588458,0.588458,0.5701,0.5701,0.588458,0.588458,0.588458,0.606816,0.606816,0.625174,0.625174,0.643532,0.643532,0.643532,0.680248,0.680248,0.680248,0.698606,0.698606,0.698606,0.698606,0.716964,0.716964,0.698606,0.735322,0.735322,0.772038,0.772038,0.75368,0.75368,0.75368,0.735322,0.75368,0.75368,0.75368,0.75368,0.790396,0.808754,0.827112,0.790396,0.827112,0.827112,0.827112,0.84547,0.863828,0.84547,0.808754,0.84547,0.882186
-0.311084,-0.311084,-0.311084,-0.311084,-0.311084,-0.311084,-0.292726,-0.274368,-0.25601,-0.274368,-0.274368,-0.274368,-0.274368,-0.274368,-0.25601,-0.237652,-0.237652,-0.237652,-0.25601,-0.25601,-0.25601,-0.237652,-0.219294,-0.237652,-0.237652,-0.237652,-0.237652,-0.219294,-0.237652,-0.237652,-0.237652,-0.237652,-0.219294,-0.219294,-0.200936,-0.200936,-0.200936,-0.200936,-0.200936,-0.200936,-0.16422,-0.16422,-0.16422,-0.182578,-0.182578,-0.16422,-0.145862,-0.145862,-0.16422,-0.16422,-0.16422,-0.182578,-0.16422,-0.16422,-0.109146,-0.0724301,-0.109146,-0.127504,-0.127504,-0.0907881,-0.0724301,-0.0724301,-0.0540721,-0.0724301,-0.0540721,-0.0357141,-0.0357141,0.00100183,0.00100183,-0.0357141,-0.0173562,0.00100183,0.0193598,0.0377178,0.00100183,0.00100183,0.00100183,0.0377178,0.00100183,-0.0173562,0.0193598,0.0193598,0.00100183,-0.0173562,-0.0173562,0.00100183,0.00100183,-0.0540721,-0.0357141,-0.0357141,-0.0357141,-0.0173562,0.00100183,0.00100183,0.00100183,-0.0173562,-0.0357141,-0.0173562,0.00100183,0.00100183,0.0193598,0.0193598,0.0377178,0.0377178,0.0377178,0.0193598,0.0193598,0.0193598,0.0193598,0.0193598,0.0193598,0.0377178,0.0377178,0.0377178,0.0377178,0.0377178,0.0560758,0.0560758,0.0560758,0.0744338,0.0927918,0.0927918,0.0927918,0.11115,0.0927918,0.0927918,0.0927918,0.0927918,0.0744338,0.0744338,0.0927918,0.0927918,0.11115,0.11115,0.11115,0.11115,0.11115,0.11115,0.11115,0.11115,0.11115,0.11115,0.129508,0.147866,0.129508,0.147866,0.147866,0.166224,0.166224,0.184582,0.184582,0.20294,0.20294,0.221298,0.221298,0.221298,0.239656,0.239656,0.239656,0.221298,0.258014,0.276372,0.276372,0.258014,0.258014,0.276372,0.258014,0.331446,0.38652,0.331446,0.313088,0.313088,0.313088,0.313088,0.313088,0.313088,0.313088,0.349804,0.331446,0.313088,0.29473,0.276372,0.276372,0.276372,0.29473,0.29473,0.29473,0.276372,0.29473,0.29473,0.313088,0.29473,0.276372,0.29473,0.276372,0.276372,0.258014,0.29473,0.313088,0.331446,0.349804,0.349804,0.368162,0.368162,0.349804,0.331446,0.313088,0.331446,0.349804,0.349804,0.368162,0.368162,0.368162,0.368162,0.313088,0.441594,0.5701,0.29473,0.588458,0.29473,0.29473,0.29473,0.313088,0.349804,0.38652,0.404878,0.404878,0.404878,0.423236,0.404878,0.404878,0.404878,0.441594,0.459952,0.47831,0.47831,0.496668,0.496668,0.515026,0.496668,0.496668,0.515026,0.515026,0.515026,0.515026,0.515026,0.533384,0.551742,0.551742,0.5701,0.588458,0.588458,0.588458,0.5701,0.5701,0.588458,0.588458,0.588458,0.606816,0.606816,0.625174,0.625174,0.625174,0.625174,0.643532,0.643532,0.680248,0.66189,0.680248,0.698606,0.680248,0.698606,0.716964,0.716964,0.698606,0.735322,0.735322,0.772038,0.772038,0.75368,0.75368,0.75368,0.735322,0.735322,0.75368,0.772038,0.772038,0.790396,0.808754,0.808754,0.790396,0.790396,0.790396,0.808754,0.84547,0.84547,0.827112,0.790396,0.827112,0.863828
-0.3478,-0.329442,-0.329442,-0.329442,-0.3478,-0.3478,-0.311084,-0.274368,-0.274368,-0.274368,-0.274368,-0.274368,-0.274368,-0.274368,-0.274368,-0.25601,-0.25601,-0.25601,-0.25601,-0.25601,-0.25601,-0.237652,-0.237652,-0.25601,-0.25601,-0.25601,-0.237652,-0.237652,-0.237652,-0.25601,-0.25601,-0.237652,-0.219294,-0.219294,-0.219294,-0.219294,-0.219294,-0.219294,-0.219294,-0.200936,-0.182578,-0.182578,-0.182578,-0.182578,-0.182578,-0.16422,-0.16422,-0.182578,-0.182578,-0.182578,-0.182578,-0.182578,-0.16422,-0.145862,-0.127504,-0.145862,-0.145862,-0.127504,-0.127504,-0.145862,-0.127504,-0.109146,-0.0907881,-0.0907881,-0.0907881,-0.0907881,-0.0907881,-0.0540721,-0.0540721,-0.0540721,-0.0540721,-0.0724301,-0.0724301,-0.0540721,-0.0357141,-0.0540721,-0.0540721,-0.0357141,-0.0173562,-0.0173562,-0.0357141,-0.0357141,-0.0540721,-0.0357141,-0.0173562,0.00100183,-0.0357141,-0.0724301,-0.0540721,-0.0357141,-0.0357141,-0.0173562,0.00100183,-0.0173562,-0.0357141,-0.0357141,-0.0357141,-0.0173562,0.00100183,0.00100183,0.0193598,0.0193598,0.0193598,0.0193598,0.00100183,0.00100183,0.0193598,0.0193598,0.0193598,0.0193598,0.0193598,0.0193598,0.0193598,0.00100183,0.0193598,0.0377178,0.0560758,0.0560758,0.0744338,0.0744338,0.0927918,0.0927918,0.0927918,0.0927918,0.0744338,0.0560758,0.0560758,0.0560758,0.0560758,0.0744338,0.0927918,0.0927918,0.11115,0.11115,0.11115,0.11115,0.0927918,0.0927918,0.11115,0.11115,0.11115,0.11115,0.129508,0.147866,0.147866,0.166224,0.147866,0.147866,0.166224,0.166224,0.166224,0.166224,0.166224,0.166224,0.184582,0.20294,0.239656,0.258014,0.258014,0.239656,0.221298,0.239656,0.221298,0.221298,0.221298,0.258014,0.276372,0.258014,0.258014,0.276372,0.276372,0.29473,0.313088,0.313088,0.276372,0.258014,0.258014,0.368162,0.349804,0.313088,0.29473,0.276372,0.276372,0.276372,0.29473,0.29473,0.29473,0.29473,0.29473,0.29473,0.29473,0.29473,0.29473,0.29473,0.276372,0.276372,0.258014,0.258014,0.29473,0.313088,0.331446,0.313088,0.313088,0.29473,0.331446,0.331446,0.313088,0.331446,0.349804,0.349804,0.349804,0.368162,0.331446,0.29473,0.29473,0.349804,0.496668,0.29473,0.459952,0.441594,0.29473,0.331446,0.313088,0.331446,0.349804,0.423236,0.38652,0.38652,0.404878,0.404878,0.404878,0.404878,0.441594,0.441594,0.459952,0.47831,0.47831,0.47831,0.496668,0.496668,0.496668,0.496668,0.496668,0.515026,0.515026,0.515026,0.515026,0.533384,0.551742,0.5701,0.5701,0.588458,0.588458,0.588458,0.588458,0.588458,0.588458,0.588458,0.606816,0.606816,0.625174,0.625174,0.625174,0.625174,0.625174,0.625174,0.625174,0.66189,0.66189,0.680248,0.680248,0.680248,0.698606,0.698606,0.698606,0.735322,0.735322,0.772038,0.75368,0.75368,0.75368,0.735322,0.735322,0.735322,0.75368,0.772038,0.772038,0.790396,0.808754,0.808754,0.790396,0.790396,0.790396,0.808754,0.827112,0.827112,0.808754,0.808754,0.827112,0.84547
-0.329442,-0.329442,-0.384516,-0.402874,-0.402874,-0.366158,-0.311084,-0.292726,-0.292726,-0.292726,-0.292726,-0.292726,-0.292726,-0.292726,-0.274368,-0.25601,-0.25601,-0.25601,-0.25601,-0.25601,-0.25601,-0.25601,-0.237652,-0.25601,-0.25601,-0.25601,-0.237652,-0.237652,-0.25601,-0.25601,-0.25601,-0.237652,-0.237652,-0.237652,-0.237652,-0.237652,-0.219294,-0.219294,-0.219294,-0.200936,-0.200936,-0.200936,-0.182578,-0.182578,-0.182578,-0.182578,-0.182578,-0.182578,-0.182578,-0.200936,-0.182578,-0.182578,-0.16422,-0.16422,-0.16422,-0.16422,-0.145862,-0.145862,-0.145862,-0.145862,-0.127504,-0.109146,-0.127504,-0.127504,-0.127504,-0.109146,-0.0907881,-0.0907881,-0.109146,-0.0907881,-0.0907881,-0.0907881,-0.0907881,-0.0907881,-0.0907881,-0.0724301,-0.0540721,-0.0540721,-0.0724301,-0.0724301,-0.0724301,-0.0540721,-0.0540721,-0.0357141,-0.0173562,-0.0357141,-0.0724301,-0.0724301,-0.0540721,-0.0357141,-0.0357141,-0.0173562,-0.0173562,-0.0540721,-0.0540721,-0.0357141,-0.0357141,-0.0173562,0.00100183,0.00100183,0.0193598,0.00100183,0.00100183,0.00100183,0.00100183,0.00100183,0.0193598,0.0193598,0.0193598,-0.0173562,-0.0173562,0.00100183,0.00100183,0.00100183,0.0193598,0.0377178,0.0560758,0.0560758,0.0744338,0.0744338,0.0560758,0.0377178,0.0377178,0.0377178,0.0377178,0.0377178,0.0560758,0.0560758,0.0744338,0.0927918,0.0927918,0.0927918,0.11115,0.11115,0.11115,0.0377178,0.0560758,0.0744338,0.0927918,0.0927918,0.0927918,0.0927918,0.0927918,0.11115,0.147866,0.166224,0.147866,0.147866,0.166224,0.166224,0.166224,0.147866,0.147866,0.166224,0.166224,0.184582,0.20294,0.221298,0.239656,0.239656,0.239656,0.239656,0.20294,0.20294,0.184582,0.221298,0.276372,0.276372,0.258014,0.258014,0.239656,0.276372,0.29473,0.331446,0.29473,0.276372,0.258014,0.331446,0.331446,0.313088,0.29473,0.313088,0.276372,0.29473,0.29473,0.29473,0.29473,0.29473,0.276372,0.276372,0.276372,0.276372,0.29473,0.29473,0.29473,0.276372,0.258014,0.258014,0.29473,0.29473,0.276372,0.29473,0.29473,0.29473,0.29473,0.313088,0.313088,0.313088,0.313088,0.313088,0.313088,0.29473,0.313088,0.29473,0.29473,0.368162,0.38652,0.313088,0.38652,0.349804,0.313088,0.313088,0.29473,0.331446,0.331446,0.423236,0.368162,0.38652,0.38652,0.38652,0.404878,0.404878,0.441594,0.441594,0.459952,0.47831,0.47831,0.459952,0.47831,0.47831,0.47831,0.47831,0.47831,0.496668,0.496668,0.515026,0.496668,0.515026,0.551742,0.551742,0.551742,0.5701,0.588458,0.5701,0.5701,0.5701,0.588458,0.588458,0.606816,0.606816,0.606816,0.606816,0.588458,0.625174,0.625174,0.625174,0.625174,0.625174,0.625174,0.643532,0.643532,0.680248,0.680248,0.680248,0.698606,0.735322,0.735322,0.75368,0.735322,0.716964,0.716964,0.716964,0.75368,0.75368,0.75368,0.772038,0.772038,0.790396,0.808754,0.808754,0.790396,0.790396,0.790396,0.808754,0.827112,0.827112,0.808754,0.808754,0.827112,0.84547
-0.329442,-0.568096,-0.494664,-0.494664,-0.43959,-0.329442,-0.311084,-0.311084,-0.311084,-0.292726,-0.292726,-0.292726,-0.292726,-0.292726,-0.274368,-0.274368,-0.274368,-0.274368,-0.274368,-0.274368,-0.274368,-0.25601,-0.25601,-0.25601,-0.25601,-0.25601,-0.25601,-0.237652,-0.25601,-0.25601,-0.25601,-0.237652,-0.25601,-0.25601,-0.237652,-0.237652,-0.219294,-0.237652,-0.219294,-0.219294,-0.219294,-0.200936,-0.182578,-0.200936,-0.200936,-0.200936,-0.200936,-0.200936,-0.200936,-0.200936,-0.182578,-0.182578,-0.182578,-0.182578,-0.182578,-0.16422,-0.16422,-0.16422,-0.16422,-0.145862,-0.127504,-0.127504,-0.16422,-0.145862,-0.127504,-0.109146,-0.0907881,-0.109146,-0.145862,-0.109146,-0.109146,-0.109146,-0.109146,-0.109146,-0.0907881,-0.0724301,-0.0540721,-0.0724301,-0.109146,-0.0907881,-0.0907881,-0.0724301,-0.0540721,-0.0540721,-0.0540721,-0.0724301,-0.0907881,-0.0724301,-0.0540721,-0.0357141,-0.0357141,-0.0357141,-0.0724301,-0.0724301,-0.0540721,-0.0357141,-0.0357141,-0.0173562,0.00100183,0.00100183,0.00100183,-0.0357141,-0.0173562,-0.0173562,-0.0173562,0.00100183,0.0193598,0.00100183,-0.0173562,-0.0357141,-0.0173562,-0.0173562,0.00100183,0.00100183,0.0193598,0.0377178,0.0560758,0.0560758,0.0377178,0.0193598,0.0193598,0.0193598,0.0193598,0.0193598,0.0377178,0.0377178,0.0560758,0.0560758,0.0744338,0.0927918,0.0744338,0.0744338,0.0927918,0.0744338,0.0744338,0.0560758,0.0377178,0.0560758,0.0560758,0.0560758,0.0560758,0.0560758,0.0744338,0.0927918,0.129508,0.147866,0.147866,0.147866,0.147866,0.147866,0.166224,0.147866,0.147866,0.166224,0.166224,0.166224,0.147866,0.184582,0.20294,0.239656,0.258014,0.239656,0.221298,0.20294,0.184582,0.221298,0.239656,0.258014,0.258014,0.258014,0.239656,0.239656,0.239656,0.276372,0.276372,0.276372,0.276372,0.29473,0.276372,0.276372,0.29473,0.313088,0.29473,0.29473,0.29473,0.29473,0.29473,0.29473,0.29473,0.276372,0.276372,0.276372,0.29473,0.29473,0.313088,0.29473,0.276372,0.276372,0.276372,0.276372,0.29473,0.29473,0.313088,0.313088,0.313088,0.313088,0.313088,0.29473,0.313088,0.313088,0.313088,0.313088,0.313088,0.29473,0.29473,0.349804,0.349804,0.331446,0.331446,0.313088,0.29473,0.29473,0.29473,0.331446,0.331446,0.368162,0.349804,0.38652,0.38652,0.38652,0.404878,0.404878,0.441594,0.459952,0.459952,0.47831,0.47831,0.459952,0.47831,0.496668,0.496668,0.496668,0.496668,0.496668,0.496668,0.515026,0.496668,0.515026,0.551742,0.551742,0.551742,0.551742,0.5701,0.5701,0.5701,0.5701,0.588458,0.588458,0.606816,0.606816,0.606816,0.588458,0.588458,0.625174,0.625174,0.625174,0.625174,0.625174,0.625174,0.606816,0.625174,0.66189,0.680248,0.66189,0.698606,0.716964,0.716964,0.735322,0.716964,0.698606,0.698606,0.698606,0.790396,0.772038,0.75368,0.772038,0.772038,0.790396,0.808754,0.808754,0.790396,0.790396,0.790396,0.808754,0.827112,0.827112,0.808754,0.808754,0.827112,0.84547
-0.568096,-0.62317,-0.568096,-0.457948,-0.421232,-0.329442,-0.329442,-0.329442,-0.311084,-0.292726,-0.292726,-0.292726,-0.292726,-0.274368,-0.274368,-0.274368,-0.274368,-0.274368,-0.274368,-0.274368,-0.25601,-0.25601,-0.25601,-0.25601,-0.25601,-0.274368,-0.274368,-0.25601,-0.25601,-0.25601,-0.25601,-0.25601,-0.274368,-0.25601,-0.237652,-0.237652,-0.237652,-0.237652,-0.237652,-0.219294,-0.219294,-0.200936,-0.200936,-0.200936,-0.219294,-0.200936,-0.219294,-0.219294,-0.219294,-0.200936,-0.182578,-0.182578,-0.200936,-0.182578,-0.182578,-0.16422,-0.182578,-0.182578,-0.16422,-0.145862,-0.145862,-0.145862,-0.16422,-0.145862,-0.127504,-0.109146,-0.109146,-0.145862,-0.145862,-0.127504,-0.127504,-0.127504,-0.127504,-0.109146,-0.0907881,-0.0724301,-0.0724301,-0.109146,-0.109146,-0.0907881,-0.0907881,-0.0724301,-0.0724301,-0.0724301,-0.0907881,-0.0907881,-0.0907881,-0.0724301,-0.0540721,-0.0357141,-0.0724301,-0.0907881,-0.0907881,-0.0724301,-0.0540721,-0.0357141,-0.0357141,-0.0173562,-0.0357141,-0.0540721,-0.0540721,-0.0540721,-0.0357141,-0.0173562,-0.0173562,0.00100183,0.00100183,-0.0173562,-0.0357141,-0.0357141,-0.0173562,-0.0173562,0.00100183,0.00100183,0.0193598,0.0193598,0.0193598,0.0193598,0.00100183,0.00100183,0.00100183,0.0193598,0.0193598,0.0193598,0.0377178,0.0377178,0.0560758,0.0560758,0.0560758,0.0560758,0.0560758,0.0377178,0.0377178,0.0377178,0.0377178,0.0377178,0.0377178,0.0560758,0.0560758,0.0560758,0.0560758,0.0560758,0.0744338,0.0927918,0.0927918,0.166224,0.147866,0.129508,0.129508,0.129508,0.129508,0.129508,0.147866,0.166224,0.166224,0.166224,0.166224,0.166224,0.184582,0.221298,0.221298,0.221298,0.20294,0.20294,0.20294,0.20294,0.221298,0.221298,0.221298,0.239656,0.239656,0.239656,0.239656,0.239656,0.239656,0.258014,0.29473,0.29473,0.258014,0.258014,0.276372,0.313088,0.29473,0.276372,0.276372,0.276372,0.276372,0.29473,0.29473,0.29473,0.29473,0.29473,0.313088,0.349804,0.331446,0.331446,0.313088,0.276372,0.258014,0.239656,0.29473,0.29473,0.29473,0.313088,0.29473,0.29473,0.29473,0.29473,0.313088,0.29473,0.331446,0.313088,0.313088,0.29473,0.29473,0.349804,0.349804,0.331446,0.313088,0.313088,0.29473,0.29473,0.29473,0.331446,0.331446,0.368162,0.368162,0.404878,0.38652,0.38652,0.404878,0.423236,0.441594,0.459952,0.459952,0.47831,0.47831,0.459952,0.47831,0.496668,0.496668,0.496668,0.496668,0.496668,0.496668,0.496668,0.496668,0.496668,0.515026,0.551742,0.515026,0.551742,0.5701,0.5701,0.5701,0.5701,0.588458,0.588458,0.588458,0.588458,0.606816,0.588458,0.588458,0.625174,0.625174,0.625174,0.625174,0.625174,0.625174,0.625174,0.625174,0.66189,0.680248,0.680248,0.698606,0.716964,0.735322,0.735322,0.716964,0.698606,0.698606,0.698606,0.772038,0.75368,0.75368,0.772038,0.772038,0.790396,0.808754,0.808754,0.790396,0.790396,0.790396,0.808754,0.827112,0.827112,0.808754,0.808754,0.827112,0.84547
-0.62317,-0.641528,-0.476306,-0.366158,-0.329442,-0.329442,-0.329442,-0.329442,-0.311084,-0.292726,-0.292726,-0.292726,-0.292726,-0.292726,-0.292726,-0.292726,-0.292726,-0.292726,-0.292726,-0.274368,-0.274368,-0.274368,-0.274368,-0.274368,-0.274368,-0.274368,-0.292726,-0.274368,-0.274368,-0.274368,-0.274368,-0.274368,-0.274368,-0.25601,-0.237652,-0.237652,-0.25601,-0.25601,-0.237652,-0.219294,-0.219294,-0.219294,-0.219294,-0.219294,-0.219294,-0.200936,-0.237652,-0.219294,-0.219294,-0.200936,-0.200936,-0.200936,-0.200936,-0.182578,-0.182578,-0.182578,-0.182578,-0.182578,-0.16422,-0.16422,-0.16422,-0.16422,-0.16422,-0.145862,-0.145862,-0.145862,-0.145862,-0.145862,-0.145862,-0.145862,-0.145862,-0.127504,-0.127504,-0.109146,-0.0907881,-0.0907881,-0.0907881,-0.109146,-0.109146,-0.0907881,-0.0907881,-0.0907881,-0.0907881,-0.109146,-0.109146,-0.109146,-0.0907881,-0.0724301,-0.0540721,-0.0724301,-0.0907881,-0.0907881,-0.0907881,-0.0724301,-0.0540721,-0.0357141,-0.0357141,-0.0357141,-0.0540721,-0.0724301,-0.0540721,-0.0540721,-0.0357141,-0.0173562,-0.0173562,-0.0173562,-0.0173562,-0.0540721,-0.0357141,-0.0357141,-0.0173562,-0.0173562,0.00100183,0.00100183,0.00100183,-0.0173562,-0.0173562,-0.0173562,-0.0173562,0.00100183,0.00100183,0.0193598,0.0193598,0.0193598,0.0377178,0.0193598,0.0193598,0.0193598,0.0377178,0.0193598,0.0193598,0.0193598,0.0193598,0.0377178,0.0377178,0.0560758,0.0560758,0.0560758,0.0560758,0.0560758,0.0560758,0.0560758,0.0744338,0.0927918,0.0927918,0.0927918,0.0927918,0.0927918,0.0927918,0.0927918,0.11115,0.11115,0.11115,0.129508,0.129508,0.147866,0.184582,0.20294,0.166224,0.166224,0.166224,0.166224,0.147866,0.184582,0.239656,0.239656,0.239656,0.20294,0.221298,0.20294,0.20294,0.184582,0.239656,0.239656,0.221298,0.239656,0.276372,0.313088,0.29473,0.258014,0.258014,0.29473,0.29473,0.276372,0.276372,0.276372,0.276372,0.276372,0.29473,0.29473,0.29473,0.29473,0.313088,0.331446,0.349804,0.349804,0.349804,0.276372,0.258014,0.258014,0.276372,0.276372,0.29473,0.313088,0.313088,0.313088,0.313088,0.313088,0.313088,0.313088,0.313088,0.313088,0.313088,0.29473,0.313088,0.349804,0.349804,0.331446,0.313088,0.313088,0.331446,0.331446,0.331446,0.349804,0.349804,0.38652,0.38652,0.404878,0.404878,0.404878,0.404878,0.423236,0.441594,0.459952,0.459952,0.47831,0.47831,0.47831,0.47831,0.496668,0.496668,0.496668,0.496668,0.496668,0.515026,0.515026,0.515026,0.496668,0.515026,0.551742,0.533384,0.551742,0.5701,0.588458,0.588458,0.588458,0.588458,0.588458,0.588458,0.588458,0.606816,0.588458,0.588458,0.625174,0.625174,0.625174,0.625174,0.625174,0.625174,0.625174,0.625174,0.66189,0.680248,0.680248,0.698606,0.716964,0.735322,0.735322,0.716964,0.716964,0.716964,0.716964,0.735322,0.735322,0.75368,0.772038,0.772038,0.790396,0.808754,0.808754,0.790396,0.790396,0.790396,0.808754,0.827112,0.827112,0.808754,0.808754,0.827112,0.84547
-0.641528,-0.494664,-0.366158,-0.329442,-0.329442,-0.329442,-0.329442,-0.329442,-0.311084,-0.292726,-0.311084,-0.311084,-0.311084,-0.311084,-0.311084,-0.311084,-0.311084,-0.311084,-0.292726,-0.292726,-0.292726,-0.292726,-0.292726,-0.292726,-0.292726,-0.292726,-0.292726,-0.274368,-0.274368,-0.274368,-0.274368,-0.274368,-0.274368,-0.25601,-0.237652,-0.237652,-0.25601,-0.25601,-0.237652,-0.219294,-0.237652,-0.237652,-0.237652,-0.237652,-0.219294,-0.219294,-0.237652,-0.219294,-0.219294,-0.219294,-0.219294,-0.200936,-0.200936,-0.200936,-0.200936,-0.200936,-0.200936,-0.182578,-0.182578,-0.182578,-0.182578,-0.16422,-0.16422,-0.16422,-0.16422,-0.16422,-0.16422,-0.16422,-0.16422,-0.16422,-0.145862,-0.127504,-0.127504,-0.127504,-0.127504,-0.127504,-0.127504,-0.109146,-0.109146,-0.109146,-0.109146,-0.109146,-0.127504,-0.127504,-0.127504,-0.109146,-0.0907881,-0.0724301,-0.0724301,-0.0907881,-0.0907881,-0.0907881,-0.0907881,-0.0907881,-0.0724301,-0.0540721,-0.0540721,-0.0724301,-0.0724301,-0.0724301,-0.0540721,-0.0540721,-0.0357141,-0.0173562,-0.0540721,-0.0540721,-0.0540721,-0.0540721,-0.0357141,-0.0357141,-0.0173562,-0.0173562,0.00100183,0.00100183,0.00100183,-0.0357141,-0.0357141,-0.0173562,-0.0173562,0.00100183,0.00100183,0.0193598,0.0193598,0.00100183,0.0377178,-0.0173562,-0.0173562,0.00100183,0.00100183,0.00100183,0.00100183,0.0193598,0.0377178,0.0377178,0.0377178,0.0560758,0.0560758,0.0560758,0.0560758,0.0377178,0.0377178,0.0560758,0.0744338,0.0927918,0.0927918,0.166224,0.147866,0.129508,0.11115,0.0927918,0.0927918,0.0927918,0.0927918,0.0927918,0.0927918,0.11115,0.147866,0.184582,0.184582,0.184582,0.166224,0.147866,0.129508,0.166224,0.221298,0.276372,0.258014,0.20294,0.20294,0.20294,0.184582,0.20294,0.239656,0.239656,0.221298,0.221298,0.276372,0.29473,0.276372,0.258014,0.258014,0.29473,0.29473,0.276372,0.258014,0.258014,0.258014,0.258014,0.276372,0.29473,0.29473,0.29473,0.29473,0.331446,0.313088,0.349804,0.349804,0.29473,0.258014,0.258014,0.276372,0.276372,0.29473,0.313088,0.313088,0.313088,0.313088,0.313088,0.313088,0.313088,0.313088,0.313088,0.313088,0.29473,0.313088,0.349804,0.349804,0.331446,0.313088,0.313088,0.313088,0.313088,0.313088,0.331446,0.349804,0.368162,0.368162,0.38652,0.404878,0.404878,0.404878,0.423236,0.441594,0.459952,0.459952,0.47831,0.47831,0.47831,0.47831,0.496668,0.496668,0.496668,0.496668,0.496668,0.515026,0.515026,0.515026,0.515026,0.515026,0.533384,0.551742,0.551742,0.5701,0.588458,0.588458,0.588458,0.588458,0.588458,0.588458,0.588458,0.606816,0.588458,0.588458,0.625174,0.625174,0.625174,0.625174,0.625174,0.625174,0.625174,0.625174,0.66189,0.680248,0.680248,0.698606,0.716964,0.735322,0.735322,0.716964,0.716964,0.716964,0.716964,0.735322,0.735322,0.75368,0.772038,0.772038,0.790396,0.808754,0.808754,0.790396,0.790396,0.790396,0.808754,0.827112,0.827112,0.808754,0.808754,0.827112,0.84547
-0.402874,-0.366158,-0.3478,-0.3478,-0.3478,-0.3478,-0.3478,-0.329442,-0.311084,-0.292726,-0.311084,-0.311084,-0.311084,-0.311084,-0.311084,-0.311084,-0.311084,-0.311084,-0.311084,-0.311084,-0.311084,-0.311084,-0.311084,-0.311084,-0.311084,-0.311084,-0.292726,-0.274368,-0.274368,-0.274368,-0.274368,-0.274368,-0.274368,-0.25601,-0.237652,-0.237652,-0.25601,-0.25601,-0.237652,-0.219294,-0.237652,-0.25601,-0.237652,-0.237652,-0.237652,-0.237652,-0.237652,-0.237652,-0.237652,-0.219294,-0.219294,-0.200936,-0.200936,-0.219294,-0.200936,-0.200936,-0.200936,-0.200936,-0.200936,-0.200936,-0.182578,-0.16422,-0.182578,-0.182578,-0.182578,-0.182578,-0.182578,-0.182578,-0.182578,-0.16422,-0.145862,-0.127504,-0.145862,-0.145862,-0.145862,-0.145862,-0.145862,-0.127504,-0.127504,-0.127504,-0.127504,-0.127504,-0.127504,-0.127504,-0.127504,-0.109146,-0.0907881,-0.0907881,-0.109146,-0.109146,-0.109146,-0.109146,-0.109146,-0.109146,-0.0907881,-0.0724301,-0.0724301,-0.0724301,-0.0724301,-0.0724301,-0.0540721,-0.0540721,-0.0357141,-0.0357141,-0.0540721,-0.0724301,-0.0540721,-0.0540721,-0.0357141,-0.0357141,-0.0173562,-0.0173562,-0.0173562,-0.0173562,-0.0357141,-0.0357141,-0.0357141,-0.0173562,-0.0173562,0.00100183,0.00100183,0.00100183,0.00100183,-0.0173562,-0.0173562,-0.0173562,-0.0173562,0.00100183,-0.0173562,0.00100183,0.00100183,0.0193598,0.0377178,0.0377178,0.0193598,0.0193598,0.00100183,0.0193598,0.0377178,0.0377178,0.0377178,0.0560758,0.0560758,0.0744338,0.0927918,0.0927918,0.0927918,0.11115,0.11115,0.0927918,0.0927918,0.11115,0.11115,0.11115,0.0744338,0.0744338,0.11115,0.147866,0.166224,0.184582,0.166224,0.147866,0.129508,0.147866,0.20294,0.239656,0.239656,0.221298,0.221298,0.20294,0.184582,0.184582,0.221298,0.239656,0.221298,0.221298,0.221298,0.258014,0.258014,0.258014,0.258014,0.258014,0.258014,0.258014,0.258014,0.258014,0.258014,0.258014,0.276372,0.29473,0.276372,0.276372,0.276372,0.313088,0.313088,0.349804,0.349804,0.29473,0.258014,0.258014,0.276372,0.276372,0.29473,0.313088,0.313088,0.313088,0.313088,0.313088,0.313088,0.313088,0.313088,0.313088,0.313088,0.29473,0.313088,0.349804,0.349804,0.331446,0.313088,0.313088,0.313088,0.313088,0.313088,0.331446,0.349804,0.368162,0.38652,0.38652,0.404878,0.404878,0.404878,0.423236,0.423236,0.459952,0.459952,0.47831,0.47831,0.47831,0.47831,0.496668,0.496668,0.496668,0.496668,0.496668,0.496668,0.496668,0.496668,0.496668,0.515026,0.533384,0.551742,0.551742,0.5701,0.588458,0.588458,0.588458,0.588458,0.588458,0.588458,0.588458,0.606816,0.588458,0.588458,0.625174,0.625174,0.625174,0.625174,0.625174,0.625174,0.625174,0.625174,0.66189,0.680248,0.680248,0.698606,0.716964,0.735322,0.735322,0.716964,0.716964,0.716964,0.716964,0.735322,0.735322,0.75368,0.772038,0.772038,0.790396,0.808754,0.808754,0.790396,0.790396,0.790396,0.808754,0.827112,0.827112,0.808754,0.808754,0.827112,0.84547
-0.402874,-0.366158,-0.366158,-0.366158,-0.366158,-0.3478,-0.3478,-0.329442,-0.311084,-0.311084,-0.329442,-0.329442,-0.329442,-0.329442,-0.329442,-0.329442,-0.329442,-0.329442,-0.329442,-0.311084,-0.311084,-0.311084,-0.329442,-0.329442,-0.311084,-0.311084,-0.292726,-0.274368,-0.274368,-0.274368,-0.274368,-0.274368,-0.274368,-0.25601,-0.25601,-0.25601,-0.25601,-0.25601,-0.25601,-0.237652,-0.237652,-0.25601,-0.237652,-0.25601,-0.25601,-0.25601,-0.25601,-0.25601,-0.237652,-0.219294,-0.219294,-0.219294,-0.219294,-0.219294,-0.200936,-0.200936,-0.200936,-0.200936,-0.200936,-0.200936,-0.200936,-0.182578,-0.182578,-0.200936,-0.182578,-0.182578,-0.182578,-0.182578,-0.182578,-0.16422,-0.145862,-0.145862,-0.145862,-0.16422,-0.16422,-0.16422,-0.145862,-0.127504,-0.145862,-0.127504,-0.127504,-0.127504,-0.127504,-0.127504,-0.127504,-0.127504,-0.109146,-0.109146,-0.109146,-0.109146,-0.109146,-0.109146,-0.109146,-0.109146,-0.0724301,-0.0724301,-0.0724301,-0.0724301,-0.0724301,-0.0724301,-0.0540721,-0.0540721,-0.0540721,-0.0540721,-0.0724301,-0.0724301,-0.0540721,-0.0540721,-0.0357141,-0.0357141,-0.0357141,-0.0357141,-0.0357141,-0.0357141,-0.0357141,-0.0357141,-0.0357141,-0.0173562,-0.0173562,0.00100183,-0.0173562,-0.0173562,-0.0173562,-0.0173562,-0.0173562,-0.0173562,-0.0173562,0.00100183,-0.0173562,0.00100183,0.00100183,0.0193598,0.00100183,-0.0173562,-0.0357141,-0.0357141,-0.0173562,0.00100183,0.0193598,0.0377178,0.0193598,0.0377178,0.0377178,0.0560758,0.0560758,0.0377178,0.0377178,0.0377178,0.0744338,0.0744338,0.0927918,0.11115,0.11115,0.11115,0.0927918,0.0927918,0.11115,0.11115,0.11115,0.129508,0.147866,0.147866,0.129508,0.147866,0.166224,0.184582,0.184582,0.184582,0.20294,0.20294,0.184582,0.184582,0.20294,0.221298,0.221298,0.221298,0.221298,0.221298,0.221298,0.239656,0.239656,0.239656,0.239656,0.239656,0.239656,0.258014,0.258014,0.258014,0.276372,0.29473,0.276372,0.276372,0.276372,0.313088,0.313088,0.349804,0.349804,0.29473,0.258014,0.258014,0.276372,0.276372,0.29473,0.313088,0.313088,0.313088,0.313088,0.313088,0.313088,0.313088,0.313088,0.313088,0.313088,0.29473,0.313088,0.349804,0.349804,0.331446,0.313088,0.313088,0.313088,0.313088,0.313088,0.331446,0.349804,0.368162,0.38652,0.38652,0.404878,0.404878,0.404878,0.423236,0.423236,0.459952,0.459952,0.47831,0.47831,0.47831,0.47831,0.496668,0.496668,0.496668,0.496668,0.496668,0.496668,0.496668,0.496668,0.496668,0.515026,0.533384,0.551742,0.551742,0.5701,0.588458,0.588458,0.588458,0.588458,0.588458,0.588458,0.588458,0.606816,0.588458,0.588458,0.625174,0.625174,0.625174,0.625174,0.625174,0.625174,0.625174,0.625174,0.66189,0.680248,0.680248,0.698606,0.716964,0.735322,0.735322,0.716964,0.716964,0.716964,0.716964,0.735322,0.735322,0.75368,0.772038,0.772038,0.790396,0.808754,0.808754,0.790396,0.790396,0.790396,0.808754,0.827112,0.827112,0.808754,0.808754,0.827112,0.84547
-0.366158,-0.366158,-0.366158,-0.366158,-0.366158,-0.3478,-0.3478,-0.329442,-0.329442,-0.329442,-0.329442,-0.329442,-0.329442,-0.329442,-0.329442,-0.329442,-0.329442,-0.329442,-0.329442,-0.311084,-0.311084,-0.311084,-0.329442,-0.329442,-0.311084,-0.311084,-0.292726,-0.274368,-0.274368,-0.274368,-0.274368,-0.274368,-0.274368,-0.274368,-0.274368,-0.274368,-0.274368,-0.274368,-0.25601,-0.25601,-0.25601,-0.25601,-0.25601,-0.274368,-0.25601,-0.25601,-0.25601,-0.25601,-0.237652,-0.237652,-0.237652,-0.237652,-0.219294,-0.219294,-0.200936,-0.219294,-0.219294,-0.219294,-0.219294,-0.219294,-0.219294,-0.200936,-0.182578,-0.200936,-0.182578,-0.182578,-0.200936,-0.182578,-0.182578,-0.16422,-0.145862,-0.16422,-0.16422,-0.16422,-0.16422,-0.16422,-0.145862,-0.145862,-0.145862,-0.145862,-0.145862,-0.145862,-0.145862,-0.145862,-0.145862,-0.127504,-0.109146,-0.109146,-0.109146,-0.109146,-0.109146,-0.109146,-0.109146,-0.109146,-0.0724301,-0.0540721,-0.0540721,-0.0540721,-0.0540721,-0.0540721,-0.0540721,-0.0540721,-0.0724301,-0.0724301,-0.0724301,-0.0724301,-0.0540721,-0.0540721,-0.0357141,-0.0357141,-0.0357141,-0.0357141,-0.0357141,-0.0357141,-0.0357141,-0.0357141,-0.0357141,-0.0173562,-0.0173562,-0.0173562,-0.0173562,-0.0173562,-0.0173562,-0.0173562,-0.0173562,-0.0173562,-0.0173562,0.00100183,-0.0173562,-0.0173562,-0.0173562,-0.0173562,-0.0173562,-0.0357141,-0.0357141,-0.0540721,-0.0357141,-0.0173562,0.0193598,0.0193598,0.0193598,0.0193598,0.0377178,0.0377178,0.0193598,0.0193598,0.0193598,0.0377178,0.0377178,0.0377178,0.0377178,0.0377178,0.0560758,0.0744338,0.0927918,0.0927918,0.11115,0.11115,0.0927918,0.11115,0.11115,0.129508,0.129508,0.147866,0.147866,0.147866,0.129508,0.147866,0.166224,0.20294,0.20294,0.20294,0.20294,0.184582,0.20294,0.239656,0.221298,0.221298,0.221298,0.221298,0.239656,0.239656,0.239656,0.239656,0.239656,0.258014,0.258014,0.258014,0.276372,0.29473,0.276372,0.276372,0.276372,0.313088,0.313088,0.349804,0.349804,0.29473,0.258014,0.258014,0.276372,0.276372,0.29473,0.313088,0.313088,0.313088,0.313088,0.313088,0.313088,0.313088,0.313088,0.313088,0.313088,0.29473,0.313088,0.349804,0.349804,0.331446,0.313088,0.313088,0.313088,0.313088,0.313088,0.331446,0.349804,0.368162,0.38652,0.38652,0.404878,0.404878,0.404878,0.423236,0.423236,0.459952,0.459952,0.47831,0.47831,0.47831,0.47831,0.496668,0.496668,0.496668,0.496668,0.496668,0.496668,0.496668,0.496668,0.496668,0.515026,0.533384,0.551742,0.551742,0.5701,0.588458,0.588458,0.588458,0.588458,0.588458,0.588458,0.588458,0.606816,0.588458,0.588458,0.625174,0.625174,0.625174,0.625174,0.625174,0.625174,0.625174,0.625174,0.66189,0.680248,0.680248,0.698606,0.716964,0.735322,0.735322,0.716964,0.716964,0.716964,0.716964,0.735322,0.735322,0.75368,0.772038,0.772038,0.790396,0.808754,0.808754,0.790396,0.790396,0.790396,0.808754,0.827112,0.827112,0.808754,0.808754,0.827112,0.84547
