3.66141,3.66141,3.66141,3.66141,3.64361,3.6258,3.57237,3.51895,3.46552,3.39429,3.35868,3.48333,3.69703,3.89292,3.89292,3.89292,3.89292,3.92854,3.8573,3.66141,3.6258,3.73265,3.75046,2.71758,2.66416,3.55457,3.39429,3.12717,3.60799,3.50114,3.39429,3.1984,3.21621,3.32306,3.42991,3.67922,3.64361,3.14498,2.66416,2.69977,2.68197,2.91347,2.71758,2.73539,2.59293,2.66416,2.57512,2.55731,2.50388,2.16553,2.52169,1.98745,1.96964,2.41484,2.12991,2.07649,1.91621,1.95183,2.00526,2.34361,1.93402,2.1121,1.31074,1.36416,1.31074,2.20115,1.93402,1.8806,1.63128,1.64909,1.39978,1.61348,1.36416,1.52444,1.80937,1.63128,1.64909,1.4532,1.2217,1.2395,1.29293,1.38197,1.32855,1.27512,1.29293,1.29293,1.29293,1.2395,1.13266,0.847725,1.2217,1.36416,1.34635,1.50663,0.990191,1.02581,1.11485,1.2217,1.06142,0.936766,1.16827,1.13266,1.02581,0.847725,0.90115,1.16827,0.812109,0.90115,0.776493,0.918958,0.990191,0.740876,0.473754,0.046358,0.046358,0.260056,0.366905,0.420329,0.277864,-0.00706643,0.0107417,0.046358,-0.00706643,0.206631,0.22444,0.188823,0.0641662,0.0819744,0.0997825,0.171015,0.206631,0.171015,0.171015,0.153207,0.0819744,0.046358,0.0997825,0.0819744,0.0641662,0.0641662,0.0641662,0.0641662,0.0641662,0.0819744,0.0819744,0.0997825,0.117591,0.117591,0.117591,0.135399,0.153207,0.171015,0.188823,0.206631,0.188823,0.206631,0.22444,0.242248,0.242248,0.260056,0.260056,0.277864,0.277864,0.295672,0.31348,0.31348,0.331289,0.331289,0.349097,0.349097,0.349097,0.366905,0.366905,0.384713,0.384713,0.402521,0.402521,0.420329,0.438138,0.455946,0.473754,0.455946,0.473754,0.473754,0.491562,0.491562,0.491562,0.50937,0.50937,0.50937,0.50937,0.527178,0.544986,0.544986,0.562795,0.580603,0.580603,0.598411,0.598411,0.598411,0.616219,0.616219,0.634027,0.651836,0.651836,0.669644,0.669644,0.687452,0.70526,0.70526,0.723068,0.723068,0.740876,0.758685,0.758685,0.776493,0.776493,0.776493,0.794301,0.812109,0.847725,0.865533,0.883342,0.90115,0.918958,0.954574,0.972382,0.990191,1.008,1.02581,1.04362,1.07923,1.07923,1.09704,1.11485,1.13266,1.13266,1.15046,1.16827,1.18608,1.18608,1.20389,1.2217,1.2395,1.25731,1.25731,1.27512,1.29293,1.31074,1.32855,1.32855,1.2395,0.936766,0.687452,0.776493,0.865533,0.847725,1.09704,1.38197,1.38197,1.41759,1.47101,1.47101,1.38197,1.18608,0.990191,0.812109,0.723068,0.723068,0.829917,1.09704,1.29293,1.54224,1.29293,1.36416,1.4532,1.4532,1.47101,1.39978,0.936766,0.384713,0.384713,0.384713,0.384713,0.384713,0.384713,0.384713,0.384713,0.384713,0.384713,0.366905,0.349097,0.473754,0.865533,1.38197,1.54224,1.57786,1.57786,1.57786,1.57786
3.66141,3.66141,3.66141,3.66141,3.64361,3.6258,3.57237,3.51895,3.46552,3.39429,3.39429,3.48333,3.78607,3.91073,3.91073,3.91073,3.91073,3.91073,3.8573,3.67922,3.66141,3.67922,3.48333,3.26964,3.28744,3.50114,3.34087,3.30525,3.44772,3.46552,3.39429,3.30525,3.4121,3.64361,3.91073,3.69703,3.6258,3.37648,2.91347,2.59293,2.50388,2.12991,2.52169,2.66416,2.77101,2.91347,3.00251,2.84224,2.57512,2.5395,2.29019,2.12991,2.12991,2.27238,2.20115,2.0943,1.98745,2.07649,2.25457,2.12991,2.04087,2.00526,1.8806,2.14772,2.00526,1.96964,1.95183,1.96964,1.80937,1.72033,2.16553,1.80937,1.59567,1.70252,1.63128,1.54224,1.57786,1.68471,1.47101,1.48882,1.39978,1.29293,1.57786,1.52444,1.13266,1.27512,1.2395,1.34635,1.48882,1.38197,1.34635,1.36416,1.2395,1.38197,1.25731,1.2217,1.25731,1.11485,1.20389,1.32855,1.04362,1.20389,0.918958,0.776493,0.794301,0.865533,0.70526,0.634027,0.580603,0.972382,0.740876,0.847725,0.616219,-0.0426828,0.046358,0.473754,0.473754,0.384713,0.527178,-0.00706643,0.046358,0.046358,0.0997825,0.046358,0.0285499,0.0641662,0.0819744,0.046358,0.0641662,0.0819744,0.0997825,0.0997825,0.046358,0.188823,0.0997825,0.153207,0.0641662,0.0641662,0.046358,0.0641662,0.0641662,0.0641662,0.0641662,0.0641662,0.0819744,0.0819744,0.0997825,0.117591,0.117591,0.135399,0.153207,0.171015,0.188823,0.188823,0.188823,0.206631,0.206631,0.22444,0.242248,0.242248,0.260056,0.260056,0.277864,0.295672,0.31348,0.31348,0.331289,0.331289,0.349097,0.349097,0.349097,0.366905,0.366905,0.366905,0.384713,0.402521,0.402521,0.420329,0.420329,0.438138,0.455946,0.455946,0.473754,0.473754,0.491562,0.491562,0.491562,0.50937,0.50937,0.50937,0.50937,0.527178,0.544986,0.544986,0.562795,0.580603,0.580603,0.598411,0.598411,0.598411,0.616219,0.616219,0.634027,0.651836,0.651836,0.669644,0.669644,0.687452,0.70526,0.70526,0.723068,0.723068,0.740876,0.758685,0.758685,0.776493,0.776493,0.776493,0.794301,0.812109,0.865533,0.883342,0.90115,0.918958,0.936766,0.972382,0.972382,0.990191,1.008,1.02581,1.04362,1.07923,1.09704,1.09704,1.11485,1.13266,1.15046,1.16827,1.16827,1.18608,1.20389,1.2217,1.2217,1.2395,1.27512,1.27512,1.29293,1.31074,1.32855,1.34635,1.36416,1.32855,1.2217,1.31074,1.31074,1.32855,1.36416,1.41759,1.47101,1.4532,1.43539,1.4532,1.4532,1.39978,1.18608,0.936766,0.794301,0.723068,0.758685,1.008,0.972382,1.54224,1.54224,1.54224,1.54224,1.52444,1.52444,1.50663,1.50663,1.38197,1.50663,0.384713,0.384713,0.384713,0.384713,0.384713,0.384713,0.384713,0.384713,0.384713,0.366905,0.384713,0.473754,0.90115,1.31074,1.50663,1.56005,1.56005,1.56005,1.56005
2.78881,3.66141,3.66141,3.66141,3.64361,3.6258,3.55457,3.50114,3.44772,3.4121,3.4121,3.51895,3.73265,3.91073,3.91073,3.91073,3.91073,3.91073,3.82169,3.71484,3.64361,3.57237,3.46552,3.44772,3.46552,3.46552,3.30525,3.35868,3.4121,3.44772,3.46552,3.50114,3.48333,3.55457,3.48333,3.32306,3.6258,3.50114,3.00251,2.55731,2.59293,2.46827,2.5395,2.69977,2.80662,2.73539,2.57512,2.66416,2.57512,2.5395,2.34361,1.86279,2.1121,2.21895,2.16553,2.07649,2.02306,2.02306,1.86279,2.02306,1.95183,2.18334,2.14772,2.41484,2.21895,2.1121,1.95183,1.79156,1.82717,1.96964,1.91621,1.79156,1.73813,1.63128,1.57786,1.63128,1.56005,1.59567,1.38197,1.59567,1.56005,1.47101,1.48882,1.39978,1.07923,1.31074,1.32855,1.36416,1.4532,1.32855,1.25731,1.34635,1.41759,1.61348,1.54224,1.4532,1.25731,0.812109,0.883342,1.15046,1.07923,0.936766,0.384713,0.491562,0.402521,0.954574,0.491562,1.13266,0.812109,0.651836,0.776493,0.723068,0.883342,0.936766,0.580603,0.420329,0.349097,0.580603,0.473754,0.117591,0.0107417,0.046358,0.046358,0.135399,0.0819744,0.135399,0.0641662,0.0819744,0.0641662,0.0819744,0.117591,0.0819744,0.117591,0.117591,0.206631,0.171015,0.0997825,-0.00706643,0.0285499,0.0285499,0.046358,0.0641662,0.046358,0.046358,0.046358,0.0641662,0.0819744,0.0997825,0.117591,0.135399,0.135399,0.153207,0.171015,0.188823,0.188823,0.206631,0.22444,0.242248,0.260056,0.260056,0.260056,0.260056,0.277864,0.295672,0.31348,0.31348,0.331289,0.331289,0.331289,0.331289,0.349097,0.366905,0.366905,0.366905,0.384713,0.402521,0.402521,0.420329,0.420329,0.438138,0.455946,0.455946,0.473754,0.473754,0.491562,0.491562,0.491562,0.50937,0.527178,0.527178,0.527178,0.544986,0.544986,0.544986,0.562795,0.580603,0.580603,0.598411,0.598411,0.598411,0.616219,0.634027,0.634027,0.651836,0.669644,0.669644,0.687452,0.70526,0.70526,0.723068,0.723068,0.740876,0.758685,0.758685,0.776493,0.794301,0.812109,0.812109,0.829917,0.847725,0.883342,0.918958,0.936766,0.972382,0.990191,1.008,1.008,1.008,1.02581,1.02581,1.04362,1.07923,1.09704,1.11485,1.11485,1.15046,1.15046,1.16827,1.16827,1.18608,1.20389,1.2217,1.2217,1.2395,1.27512,1.27512,1.29293,1.31074,1.32855,1.34635,1.36416,1.36416,1.38197,1.38197,1.39978,1.38197,1.41759,1.4532,1.47101,1.4532,1.4532,1.4532,1.4532,1.43539,1.27512,0.936766,0.812109,0.776493,1.04362,1.34635,1.54224,1.54224,1.54224,1.54224,1.54224,1.54224,1.54224,1.54224,1.54224,1.52444,1.06142,0.384713,0.384713,0.384713,0.384713,0.384713,0.384713,0.384713,0.384713,0.384713,0.384713,0.402521,0.491562,0.865533,1.25731,1.47101,1.54224,1.54224,1.54224,1.54224
2.73539,2.61073,3.34087,3.50114,3.64361,3.60799,3.57237,3.50114,3.44772,3.42991,3.46552,3.6258,3.82169,3.89292,3.89292,3.89292,3.91073,3.89292,3.82169,3.66141,3.57237,3.50114,3.46552,3.46552,3.48333,3.53676,3.4121,3.37648,3.44772,3.55457,3.59018,3.69703,3.39429,3.23402,3.23402,2.9847,3.32306,3.18059,2.91347,2.62854,2.5395,2.5395,2.66416,2.91347,2.86005,2.91347,2.82443,2.55731,2.59293,2.5395,2.86005,2.29019,2.25457,2.25457,2.18334,2.05868,2.04087,2.04087,2.12991,2.18334,2.05868,2.1121,2.07649,1.91621,1.91621,1.91621,1.8806,1.84498,1.75594,1.89841,1.93402,1.77375,1.68471,1.79156,1.50663,1.43539,1.70252,1.64909,1.70252,1.4532,1.47101,1.48882,1.39978,1.4532,1.47101,1.50663,1.4532,1.36416,1.36416,1.31074,1.32855,1.38197,1.38197,1.39978,1.4532,1.29293,0.918958,1.15046,1.18608,1.29293,1.06142,1.09704,1.11485,0.758685,0.918958,0.829917,0.758685,0.188823,0.402521,0.331289,0.384713,0.669644,0.812109,0.776493,0.936766,0.491562,0.936766,0.598411,0.616219,0.171015,-0.0248746,0.046358,0.0107417,-0.0248746,-0.00706643,0.0285499,-0.00706643,-0.00706643,0.0107417,0.0285499,0.0641662,0.117591,0.0285499,0.153207,0.153207,0.117591,0.0641662,0.0107417,0.0107417,0.0285499,0.0107417,0.0285499,0.046358,0.046358,0.046358,0.0819744,0.0819744,0.0997825,0.0997825,0.117591,0.153207,0.153207,0.188823,0.188823,0.188823,0.206631,0.22444,0.22444,0.242248,0.260056,0.260056,0.277864,0.277864,0.295672,0.295672,0.31348,0.31348,0.331289,0.331289,0.349097,0.349097,0.349097,0.366905,0.366905,0.384713,0.384713,0.402521,0.402521,0.420329,0.438138,0.455946,0.455946,0.473754,0.473754,0.473754,0.491562,0.491562,0.50937,0.527178,0.527178,0.544986,0.562795,0.562795,0.562795,0.562795,0.580603,0.598411,0.598411,0.616219,0.634027,0.634027,0.651836,0.687452,0.669644,0.687452,0.687452,0.687452,0.70526,0.723068,0.758685,0.776493,0.776493,0.794301,0.794301,0.794301,0.812109,0.829917,0.847725,0.865533,0.883342,0.90115,0.918958,0.936766,0.972382,1.008,1.02581,1.02581,1.02581,1.02581,1.04362,1.04362,1.07923,1.09704,1.11485,1.11485,1.15046,1.15046,1.16827,1.16827,1.18608,1.20389,1.2217,1.2217,1.2395,1.27512,1.27512,1.29293,1.31074,1.32855,1.34635,1.36416,1.36416,1.38197,1.39978,1.39978,1.39978,1.4532,1.4532,1.47101,1.4532,1.4532,1.4532,1.4532,1.4532,1.32855,1.09704,1.11485,1.2395,1.4532,1.54224,1.54224,1.54224,1.54224,1.54224,1.54224,1.54224,1.54224,1.54224,1.54224,1.54224,1.2395,0.954574,0.384713,0.384713,0.384713,0.384713,0.384713,0.384713,0.384713,0.384713,0.384713,0.420329,0.527178,0.829917,1.20389,1.43539,1.52444,1.54224,1.54224,1.54224
0.420329,0.776493,1.31074,2.14772,2.57512,2.78881,3.05594,3.46552,3.50114,3.57237,3.71484,3.82169,3.89292,3.92854,3.92854,3.92854,3.91073,3.89292,3.75046,3.55457,3.44772,3.39429,3.37648,3.34087,3.18059,3.35868,3.37648,3.39429,3.50114,3.66141,3.69703,3.69703,3.48333,3.07375,3.00251,2.9847,2.84224,2.93128,2.86005,2.66416,2.55731,2.57512,2.66416,2.57512,2.73539,2.86005,2.71758,2.61073,2.61073,2.62854,2.61073,2.45046,2.41484,2.39704,2.23676,2.07649,2.05868,2.07649,2.1121,2.1121,2.0943,2.12991,2.05868,1.93402,1.82717,1.98745,1.72033,1.98745,2.14772,1.98745,1.84498,1.79156,1.72033,1.72033,1.64909,1.70252,1.64909,1.64909,1.57786,1.59567,1.52444,1.07923,1.57786,1.63128,1.50663,1.59567,1.50663,1.31074,1.38197,1.32855,1.29293,1.52444,1.43539,1.36416,1.32855,1.32855,1.38197,1.32855,1.29293,1.41759,1.2217,1.16827,0.865533,1.09704,1.29293,0.990191,0.634027,0.366905,0.0285499,0.0107417,-0.0782991,0.758685,0.90115,0.847725,0.812109,0.918958,0.651836,0.50937,0.562795,-0.0961072,0.0819744,0.242248,0.0107417,0.046358,0.0819744,0.0285499,0.0285499,0.046358,0.0641662,0.0819744,0.0107417,0.046358,0.0285499,0.117591,0.135399,0.0997825,0.0285499,0.0107417,0.0107417,0.0107417,0.0285499,0.0285499,0.0641662,0.046358,0.0819744,0.0819744,0.0997825,0.117591,0.135399,0.135399,0.171015,0.171015,0.171015,0.188823,0.22444,0.22444,0.22444,0.242248,0.260056,0.277864,0.295672,0.295672,0.153207,0.331289,0.331289,0.331289,0.331289,0.349097,0.349097,0.384713,0.188823,-0.0426828,-0.0604909,0.277864,0.366905,0.402521,0.402521,0.420329,0.402521,0.438138,0.455946,0.455946,0.473754,0.473754,0.473754,0.491562,0.491562,0.50937,0.527178,0.527178,0.544986,0.562795,0.562795,0.562795,0.562795,0.580603,0.598411,0.616219,0.616219,0.634027,0.634027,0.651836,0.669644,0.669644,0.687452,0.687452,0.687452,0.70526,0.723068,0.758685,0.776493,0.794301,0.812109,0.812109,0.812109,0.812109,0.829917,0.847725,0.865533,0.883342,0.90115,0.918958,0.936766,0.972382,1.008,1.02581,1.02581,1.02581,1.02581,1.04362,1.04362,1.07923,1.09704,1.09704,1.11485,1.13266,1.15046,1.16827,1.16827,1.18608,1.20389,1.2217,1.2217,1.2395,1.27512,1.27512,1.29293,1.31074,1.32855,1.34635,1.36416,1.36416,1.38197,1.39978,1.39978,1.41759,1.43539,1.41759,1.4532,1.4532,1.4532,1.4532,1.4532,1.4532,1.36416,1.27512,1.41759,1.52444,1.54224,1.54224,1.54224,1.54224,1.54224,1.54224,1.54224,1.54224,1.54224,1.54224,1.54224,1.54224,1.41759,1.11485,0.384713,0.384713,0.384713,0.384713,0.384713,0.384713,0.384713,0.384713,0.384713,0.438138,0.544986,0.829917,1.18608,1.41759,1.50663,1.54224,1.54224,1.54224
0.562795,0.402521,0.883342,1.11485,1.54224,1.93402,2.5395,3.03813,3.32306,3.67922,3.87511,3.92854,3.94635,3.96415,3.96415,3.96415,3.91073,3.91073,3.60799,3.23402,3.21621,3.18059,3.23402,3.28744,3.26964,3.30525,3.50114,3.46552,3.50114,3.59018,3.66141,3.69703,3.37648,3.16279,2.77101,2.93128,2.94909,2.93128,2.86005,2.64635,2.5395,2.55731,2.62854,2.62854,2.57512,2.73539,2.69977,2.61073,2.61073,2.61073,2.59293,2.52169,2.50388,2.46827,2.27238,2.0943,2.05868,2.0943,2.12991,2.14772,2.18334,2.16553,2.07649,1.96964,2.02306,1.95183,1.95183,1.96964,2.02306,1.93402,1.8806,1.86279,1.75594,1.75594,1.73813,1.64909,1.63128,1.61348,1.61348,1.63128,1.50663,2.12991,1.91621,1.72033,1.56005,1.56005,1.52444,1.56005,1.43539,1.36416,1.25731,1.63128,1.57786,1.15046,1.2395,1.32855,1.43539,1.27512,1.20389,1.31074,1.27512,1.25731,1.20389,1.06142,1.09704,0.954574,0.90115,0.473754,-0.0426828,0.349097,0.829917,1.06142,0.776493,1.09704,0.883342,1.02581,1.06142,0.687452,0.22444,0.206631,0.117591,0.117591,0.117591,0.0285499,-0.0248746,-0.00706643,-0.00706643,0.171015,0.188823,0.0997825,0.153207,0.117591,0.171015,0.0997825,0.0819744,0.0641662,0.0997825,0.046358,0.0285499,0.046358,0.046358,0.046358,0.046358,0.0641662,0.0819744,0.117591,0.117591,0.117591,0.135399,0.153207,0.153207,0.171015,0.171015,0.171015,0.206631,0.22444,0.22444,0.242248,0.242248,0.153207,-0.0426828,-0.0248746,-0.0248746,0.22444,0.295672,0.331289,0.331289,0.349097,0.349097,0.366905,0.135399,0.0819744,0.384713,0.384713,0.402521,0.402521,0.420329,0.420329,0.438138,0.455946,0.455946,0.473754,0.473754,0.491562,0.473754,0.50937,0.527178,0.527178,0.527178,0.527178,0.544986,0.562795,0.580603,0.580603,0.580603,0.580603,0.598411,0.616219,0.616219,0.634027,0.634027,0.651836,0.669644,0.687452,0.687452,0.687452,0.687452,0.70526,0.723068,0.758685,0.776493,0.794301,0.812109,0.812109,0.812109,0.812109,0.829917,0.847725,0.865533,0.883342,0.90115,0.918958,0.936766,0.972382,1.008,1.02581,1.02581,1.02581,1.02581,1.04362,1.04362,1.07923,1.09704,1.09704,1.11485,1.13266,1.15046,1.16827,1.16827,1.18608,1.20389,1.2217,1.2217,1.2395,1.27512,1.27512,1.29293,1.31074,1.32855,1.34635,1.36416,1.36416,1.38197,1.39978,1.39978,1.41759,1.43539,1.43539,1.4532,1.4532,1.4532,1.4532,1.4532,1.4532,1.38197,1.38197,1.4532,1.47101,1.4532,1.54224,1.54224,1.54224,1.54224,1.54224,1.54224,1.54224,1.54224,1.54224,1.54224,1.52444,1.48882,1.02581,0.544986,0.384713,0.384713,0.384713,0.384713,0.384713,0.384713,0.384713,0.402521,0.438138,0.562795,0.829917,1.16827,1.39978,1.48882,1.52444,1.52444,1.52444
0.723068,0.544986,1.09704,1.38197,1.72033,2.05868,2.39704,2.77101,3.1984,3.69703,3.89292,3.92854,3.91073,3.96415,3.96415,3.96415,3.96415,3.96415,3.48333,3.03813,2.9847,2.9847,3.12717,3.32306,3.57237,3.80388,3.66141,3.51895,3.37648,3.30525,3.4121,3.51895,3.28744,3.00251,2.86005,2.91347,2.87786,2.87786,2.71758,2.52169,2.46827,2.45046,2.39704,2.50388,2.57512,2.68197,2.66416,2.62854,2.61073,2.61073,2.57512,2.5395,2.50388,2.46827,2.16553,2.07649,2.02306,2.04087,2.0943,2.23676,2.25457,2.16553,2.1121,1.96964,1.98745,1.95183,2.02306,1.89841,1.73813,1.73813,1.80937,1.82717,1.8806,1.77375,1.61348,1.64909,1.72033,1.84498,1.72033,1.6669,1.72033,1.72033,1.86279,1.70252,1.57786,1.56005,1.52444,1.29293,1.43539,1.36416,1.32855,1.27512,1.38197,1.29293,1.32855,1.31074,1.2395,1.13266,1.31074,1.09704,1.16827,1.09704,0.954574,0.972382,1.07923,0.990191,1.02581,0.634027,0.277864,0.598411,1.02581,1.11485,1.09704,0.758685,0.70526,0.687452,0.758685,0.812109,0.117591,0.260056,0.473754,0.206631,0.135399,-0.00706643,0.31348,0.188823,0.0285499,0.242248,0.331289,0.171015,0.171015,0.135399,0.135399,0.117591,0.0819744,0.135399,0.0819744,0.046358,0.046358,0.0285499,0.046358,0.0641662,0.046358,0.0641662,0.0819744,0.153207,0.0997825,0.153207,0.171015,0.171015,0.188823,0.206631,0.188823,0.188823,0.206631,0.22444,0.22444,0.22444,0.242248,0.135399,0.117591,0.295672,0.295672,0.31348,0.31348,0.331289,0.349097,0.349097,0.31348,0.206631,-0.0426828,0.206631,0.277864,0.331289,0.366905,0.402521,0.384713,0.295672,-0.0426828,0.455946,0.455946,0.473754,0.491562,0.491562,0.50937,0.544986,0.562795,0.562795,0.562795,0.562795,0.562795,0.562795,0.580603,0.580603,0.598411,0.598411,0.598411,0.616219,0.616219,0.634027,0.634027,0.651836,0.669644,0.687452,0.70526,0.70526,0.723068,0.723068,0.740876,0.758685,0.776493,0.794301,0.812109,0.812109,0.829917,0.812109,0.829917,0.847725,0.865533,0.883342,0.90115,0.918958,0.936766,0.954574,0.990191,1.008,1.02581,1.04362,1.06142,1.07923,1.09704,1.11485,1.13266,1.15046,1.15046,1.16827,1.18608,1.20389,1.2217,1.2395,1.2395,1.25731,1.27512,1.29293,1.31074,1.31074,1.29293,1.31074,1.32855,1.34635,1.36416,1.36416,1.38197,1.39978,1.39978,1.41759,1.43539,1.43539,1.4532,1.4532,1.4532,1.4532,1.4532,1.4532,1.39978,1.39978,1.4532,1.47101,1.47101,1.54224,1.54224,1.54224,1.54224,1.54224,1.54224,1.54224,1.52444,1.52444,1.50663,1.50663,1.48882,1.07923,0.758685,0.865533,1.16827,1.48882,0.384713,0.384713,0.384713,0.384713,0.402521,0.455946,0.562795,0.847725,1.15046,1.36416,1.47101,1.50663,1.50663,1.50663
0.883342,0.70526,1.36416,1.68471,2.05868,2.41484,2.73539,3.05594,3.32306,3.64361,3.8573,3.91073,3.89292,3.96415,3.96415,3.96415,3.96415,3.96415,3.14498,3.00251,2.9847,2.94909,3.00251,3.00251,3.18059,3.51895,3.25183,3.23402,3.10936,2.77101,2.69977,2.86005,2.82443,2.77101,2.80662,2.87786,2.77101,2.7532,2.57512,2.39704,2.37923,2.34361,2.37923,2.41484,2.55731,2.52169,2.48608,2.50388,2.52169,2.59293,2.57512,2.5395,2.50388,2.34361,2.1121,1.98745,1.98745,1.96964,1.93402,1.82717,2.04087,2.1121,1.98745,1.8806,1.98745,1.91621,1.86279,1.79156,1.75594,1.77375,1.80937,1.84498,1.86279,1.80937,1.70252,1.68471,1.73813,1.79156,1.73813,1.73813,1.79156,1.77375,1.79156,1.6669,1.52444,1.52444,1.36416,1.41759,1.52444,1.38197,1.29293,1.25731,1.48882,1.41759,1.31074,1.16827,1.29293,1.25731,1.25731,1.2217,1.06142,0.972382,1.15046,1.27512,1.29293,0.883342,0.918958,0.70526,0.687452,0.776493,0.936766,0.794301,1.04362,0.883342,0.918958,0.491562,0.634027,0.651836,0.420329,0.651836,0.634027,0.402521,0.0997825,0.0641662,0.491562,0.31348,0.50937,0.349097,0.188823,0.046358,0.0819744,0.0997825,0.0819744,0.046358,0.0107417,0.117591,0.0107417,0.0107417,0.0285499,0.0641662,0.0641662,0.0641662,0.0997825,0.0819744,0.0997825,0.117591,0.117591,0.135399,0.171015,0.171015,0.171015,0.171015,0.171015,0.188823,0.22444,0.206631,0.242248,0.277864,0.135399,0.171015,0.277864,0.277864,0.295672,0.31348,0.31348,0.331289,0.349097,0.295672,0.366905,0.0819744,0.366905,0.384713,0.384713,0.384713,0.384713,0.402521,0.349097,0.206631,-0.0604909,0.260056,0.402521,0.455946,0.438138,0.31348,0.0107417,0.331289,0.420329,0.455946,0.491562,0.50937,0.527178,0.562795,0.580603,0.580603,0.598411,0.616219,0.616219,0.616219,0.634027,0.634027,0.651836,0.651836,0.669644,0.687452,0.70526,0.723068,0.740876,0.758685,0.758685,0.776493,0.776493,0.794301,0.812109,0.812109,0.829917,0.829917,0.829917,0.847725,0.865533,0.883342,0.90115,0.918958,0.918958,0.936766,0.972382,1.008,1.02581,1.04362,1.07923,1.09704,1.13266,1.16827,1.20389,1.2217,1.20389,1.2217,1.2395,1.25731,1.27512,1.27512,1.29293,1.31074,1.32855,1.32855,1.34635,1.32855,1.31074,1.31074,1.32855,1.34635,1.36416,1.36416,1.38197,1.39978,1.39978,1.41759,1.43539,1.43539,1.4532,1.4532,1.4532,1.4532,1.4532,1.4532,1.41759,1.41759,1.4532,1.47101,1.47101,1.52444,1.54224,1.54224,1.54224,1.54224,1.54224,1.50663,1.50663,1.47101,1.4532,1.39978,1.25731,0.954574,0.847725,1.13266,1.31074,1.36416,1.18608,1.39978,1.32855,1.04362,0.90115,0.812109,0.794301,1.008,1.15046,1.31074,1.41759,1.47101,1.48882,1.48882
1.02581,0.865533,1.6669,2.02306,2.43265,2.78881,3.09155,3.34087,3.48333,3.6258,3.78607,3.92854,3.96415,3.96415,3.96415,3.96415,3.96415,3.96415,3.02032,3.02032,3.03813,2.73539,3.26964,2.61073,2.80662,2.62854,2.78881,3.10936,3.10936,2.27238,2.30799,2.25457,2.30799,2.5395,2.68197,2.62854,2.68197,2.66416,2.52169,2.37923,2.34361,2.25457,2.18334,2.21895,2.16553,2.14772,2.18334,2.21895,2.29019,2.39704,2.43265,2.48608,2.46827,2.3258,2.07649,1.96964,1.95183,1.93402,1.91621,1.91621,1.8806,1.6669,1.77375,1.57786,1.56005,1.91621,1.86279,1.82717,1.79156,1.79156,1.80937,1.84498,1.84498,1.80937,1.72033,1.70252,1.73813,1.77375,1.70252,1.68471,1.68471,1.72033,1.82717,1.61348,1.56005,1.56005,1.56005,1.48882,1.4532,1.27512,1.41759,1.38197,1.50663,1.48882,1.27512,1.32855,1.38197,1.20389,1.2395,1.06142,1.15046,1.06142,1.06142,1.06142,1.09704,1.02581,0.954574,0.990191,0.918958,0.669644,0.758685,0.812109,0.990191,1.008,0.527178,0.527178,0.544986,0.794301,0.580603,0.669644,0.50937,0.188823,0.188823,0.0641662,0.420329,0.562795,0.491562,0.366905,0.0997825,-0.0426828,-0.0426828,0.0285499,0.0641662,0.117591,0.0107417,0.0107417,0.0107417,0.0107417,0.0285499,0.046358,0.046358,0.153207,0.0997825,0.117591,0.117591,0.117591,0.117591,0.135399,0.171015,0.153207,0.188823,0.171015,0.188823,0.188823,0.22444,0.171015,0.206631,0.153207,-0.0961072,0.188823,0.277864,0.295672,0.31348,0.331289,0.331289,0.331289,0.331289,0.206631,-0.0426828,0.206631,0.31348,0.331289,0.349097,0.384713,0.402521,0.420329,0.402521,0.22444,0.0997825,0.420329,0.420329,0.438138,0.384713,0.188823,0.0107417,0.366905,0.491562,0.527178,0.527178,0.527178,0.544986,0.562795,0.580603,0.580603,0.598411,0.616219,0.616219,0.616219,0.634027,0.634027,0.651836,0.669644,0.669644,0.687452,0.70526,0.723068,0.740876,0.758685,0.758685,0.794301,0.776493,0.794301,0.812109,0.812109,0.829917,0.829917,0.847725,0.847725,0.865533,0.883342,0.90115,0.90115,0.918958,0.936766,0.972382,1.008,1.02581,1.04362,1.07923,1.09704,1.13266,1.16827,1.20389,1.2217,1.2217,1.2395,1.2395,1.25731,1.27512,1.27512,1.29293,1.31074,1.32855,1.32855,1.34635,1.34635,1.34635,1.34635,1.32855,1.34635,1.36416,1.36416,1.38197,1.39978,1.39978,1.41759,1.43539,1.43539,1.4532,1.4532,1.4532,1.4532,1.4532,1.39978,1.39978,1.39978,1.39978,1.39978,1.39978,1.36416,1.41759,1.27512,1.54224,1.29293,1.36416,1.41759,1.36416,1.32855,1.2395,1.13266,0.865533,0.616219,0.70526,1.04362,1.32855,1.48882,1.54224,1.57786,1.59567,1.59567,1.50663,1.50663,1.50663,1.43539,1.38197,1.39978,1.43539,1.43539,1.39978,1.36416
1.13266,1.02581,2.00526,2.43265,2.86005,3.18059,3.4121,3.53676,3.55457,3.53676,3.66141,3.80388,3.89292,3.96415,3.96415,3.96415,3.96415,3.96415,3.26964,3.14498,3.35868,3.96415,3.46552,2.9847,2.57512,2.46827,2.50388,3.02032,3.10936,2.50388,2.25457,2.18334,2.20115,2.37923,2.62854,2.64635,2.66416,2.62854,2.45046,2.34361,2.34361,2.25457,2.18334,2.1121,2.07649,2.02306,2.02306,2.02306,2.00526,2.00526,2.0943,2.14772,2.21895,2.12991,2.02306,1.95183,1.93402,1.91621,1.89841,1.86279,1.80937,1.72033,1.84498,1.72033,1.80937,2.00526,1.91621,1.84498,1.80937,1.80937,1.80937,1.84498,1.84498,1.79156,1.73813,1.72033,1.72033,1.70252,1.63128,1.57786,1.54224,1.80937,1.77375,1.72033,1.59567,1.52444,1.52444,1.4532,1.52444,1.36416,1.34635,1.38197,1.47101,1.43539,1.41759,1.4532,1.16827,1.27512,1.008,1.07923,1.07923,1.04362,1.16827,1.09704,1.2217,1.04362,0.954574,0.90115,0.687452,0.242248,-0.149532,-0.149532,-0.113915,0.50937,0.687452,0.473754,0.687452,0.544986,0.527178,0.687452,0.634027,0.206631,0.206631,0.135399,0.598411,0.527178,0.544986,0.242248,-0.0961072,-0.0604909,-0.0604909,-0.00706643,-0.0248746,-0.00706643,-0.0604909,-0.113915,-0.00706643,-0.0248746,0.0107417,0.046358,0.046358,0.0641662,0.0641662,0.0819744,0.0997825,0.0997825,0.0997825,0.117591,0.117591,0.135399,0.153207,0.171015,0.171015,0.188823,0.0819744,0.0819744,0.22444,0.242248,0.260056,0.277864,0.31348,0.31348,0.31348,0.331289,0.277864,0.22444,0.0997825,0.0997825,0.366905,0.366905,0.384713,0.384713,0.366905,0.384713,0.366905,0.22444,-0.0782991,-0.0604909,0.188823,0.438138,0.438138,0.455946,0.473754,0.153207,0.527178,0.544986,0.562795,0.580603,0.562795,0.544986,0.562795,0.562795,0.580603,0.598411,0.598411,0.616219,0.616219,0.634027,0.634027,0.634027,0.651836,0.669644,0.669644,0.687452,0.70526,0.723068,0.740876,0.758685,0.758685,0.794301,0.776493,0.794301,0.812109,0.812109,0.829917,0.829917,0.847725,0.847725,0.865533,0.883342,0.90115,0.90115,0.918958,0.936766,0.972382,1.008,1.02581,1.04362,1.07923,1.09704,1.13266,1.16827,1.20389,1.2217,1.2217,1.2395,1.2395,1.25731,1.27512,1.27512,1.29293,1.31074,1.32855,1.32855,1.34635,1.34635,1.34635,1.34635,1.34635,1.34635,1.34635,1.32855,1.32855,1.39978,1.39978,1.41759,1.43539,1.43539,1.4532,1.4532,1.4532,1.4532,1.31074,1.36416,1.36416,1.36416,1.36416,1.36416,1.36416,1.36416,1.32855,1.31074,1.36416,1.32855,1.32855,1.34635,1.27512,1.16827,1.008,0.829917,0.634027,0.50937,0.651836,0.990191,1.38197,1.48882,1.54224,1.57786,1.59567,1.59567,1.59567,1.57786,1.56005,1.54224,1.52444,1.50663,1.4532,1.38197,1.27512,1.2217
1.04362,1.13266,2.43265,2.91347,3.28744,3.50114,3.59018,3.60799,3.55457,3.51895,3.53676,3.64361,3.80388,3.96415,3.96415,3.96415,3.96415,3.96415,3.57237,3.39429,3.55457,3.6258,3.46552,2.9669,2.57512,2.50388,2.82443,2.94909,3.10936,2.27238,2.20115,2.14772,2.14772,2.18334,2.29019,2.64635,2.64635,2.52169,2.36142,2.34361,2.34361,2.25457,2.18334,2.14772,2.02306,1.96964,1.96964,1.95183,1.89841,1.84498,1.80937,1.79156,1.80937,1.91621,1.91621,1.93402,1.91621,1.89841,1.86279,1.80937,1.77375,1.77375,1.79156,1.77375,1.86279,1.95183,1.91621,1.84498,1.80937,1.80937,1.82717,1.82717,1.82717,1.80937,1.75594,1.72033,1.68471,1.63128,1.56005,1.48882,1.38197,1.39978,1.4532,1.77375,1.47101,1.39978,1.43539,1.4532,1.41759,1.32855,1.29293,1.34635,1.39978,1.36416,1.31074,1.2217,1.25731,1.34635,1.16827,1.07923,1.008,0.90115,1.09704,1.09704,0.972382,0.990191,0.990191,0.936766,0.634027,0.438138,0.455946,0.829917,0.473754,0.527178,0.598411,0.544986,0.527178,0.50937,0.438138,0.491562,-0.131724,-0.113915,-0.131724,-0.185148,-0.16734,0.0641662,0.0819744,0.0285499,-0.0604909,-0.0782991,-0.0782991,-0.0961072,-0.0426828,-0.0248746,-0.0426828,-0.0426828,-0.0782991,-0.0604909,-0.0248746,0.0285499,0.0285499,-0.113915,0.0285499,0.117591,0.117591,0.0641662,0.117591,0.135399,0.135399,0.153207,0.153207,-0.0604909,-0.0961072,-0.113915,-0.0961072,0.0997825,0.206631,0.242248,0.242248,0.260056,0.277864,0.31348,0.31348,0.331289,0.349097,0.206631,-0.0426828,0.22444,0.31348,0.349097,0.366905,0.384713,0.384713,0.384713,0.384713,0.206631,-0.0782991,0.153207,0.295672,0.420329,0.438138,0.331289,0.22444,-0.00706643,0.260056,0.384713,0.473754,0.527178,0.50937,0.562795,0.562795,0.580603,0.580603,0.598411,0.616219,0.616219,0.616219,0.634027,0.634027,0.634027,0.651836,0.669644,0.669644,0.687452,0.70526,0.70526,0.723068,0.740876,0.758685,0.776493,0.776493,0.776493,0.812109,0.812109,0.829917,0.829917,0.847725,0.847725,0.865533,0.883342,0.90115,0.90115,0.918958,0.936766,0.812109,0.936766,0.90115,0.990191,1.04362,1.07923,1.11485,1.15046,1.18608,1.20389,1.16827,1.2395,1.2395,1.25731,1.27512,1.27512,1.29293,1.31074,1.32855,1.32855,1.34635,1.34635,1.34635,1.34635,1.32855,1.27512,1.18608,1.06142,1.008,1.02581,1.16827,1.29293,1.25731,1.36416,1.2395,1.06142,0.990191,1.16827,1.18608,1.32855,1.34635,1.34635,1.34635,1.38197,1.38197,1.38197,1.29293,1.27512,1.29293,1.31074,1.32855,1.31074,1.18608,0.990191,0.794301,0.634027,0.50937,0.438138,0.634027,0.990191,1.38197,1.50663,1.54224,1.57786,1.59567,1.59567,1.59567,1.57786,1.56005,1.54224,1.52444,1.48882,1.41759,1.29293,1.11485,1.04362
-0.541311,1.07923,2.94909,3.37648,3.59018,3.66141,3.64361,3.60799,3.55457,3.50114,3.44772,3.46552,3.64361,3.8395,3.96415,3.96415,3.96415,3.87511,3.64361,3.48333,3.51895,3.59018,3.48333,3.1984,2.9669,3.02032,3.28744,3.26964,3.21621,3.42991,2.7532,2.43265,2.07649,2.04087,1.98745,2.64635,2.59293,2.39704,2.45046,2.34361,2.30799,2.25457,2.20115,2.07649,1.98745,1.98745,1.8806,1.86279,1.80937,1.75594,1.75594,1.75594,1.75594,1.75594,1.82717,1.89841,1.89841,1.8806,1.84498,1.80937,1.77375,1.77375,1.79156,1.80937,1.8806,1.93402,1.91621,1.84498,1.80937,1.80937,1.82717,1.82717,1.82717,1.79156,1.75594,1.68471,1.63128,1.56005,1.50663,1.4532,1.4532,1.47101,1.70252,1.4532,1.27512,1.2395,1.31074,1.38197,1.39978,1.32855,1.31074,1.34635,1.34635,1.31074,1.27512,1.27512,1.27512,1.29293,1.2217,1.07923,0.990191,0.972382,1.04362,1.06142,1.04362,1.02581,0.990191,0.812109,0.669644,0.70526,0.847725,0.758685,0.438138,0.580603,0.295672,0.206631,0.188823,-0.113915,0.366905,-0.16734,-0.0961072,-0.0961072,-0.113915,-0.149532,-0.202956,-0.202956,-0.113915,-0.113915,-0.0961072,-0.0961072,-0.0782991,-0.0604909,-0.0426828,-0.0248746,-0.00706643,-0.00706643,-0.0248746,-0.0248746,-0.00706643,0.0107417,-0.0426828,-0.0248746,-0.00706643,-0.0248746,-0.0248746,-0.00706643,-0.00706643,-0.0248746,-0.113915,-0.113915,-0.0426828,0.117591,0.188823,0.206631,0.206631,0.22444,0.242248,0.260056,0.260056,0.277864,0.295672,0.31348,0.277864,0.171015,-0.0782991,-0.0248746,0.366905,0.366905,0.384713,0.384713,0.384713,0.384713,0.384713,0.31348,0.188823,0.117591,0.135399,0.420329,0.420329,0.438138,0.420329,0.260056,-0.0248746,-0.0248746,0.295672,0.455946,0.527178,0.50937,0.366905,0.438138,0.473754,0.527178,0.562795,0.580603,0.598411,0.616219,0.616219,0.634027,0.634027,0.634027,0.651836,0.669644,0.669644,0.687452,0.687452,0.70526,0.723068,0.740876,0.758685,0.758685,0.740876,0.740876,0.758685,0.776493,0.812109,0.829917,0.847725,0.847725,0.865533,0.883342,0.865533,0.794301,0.580603,0.0819744,0.384713,0.117591,0.491562,0.580603,0.634027,0.812109,0.954574,0.954574,0.918958,0.847725,0.794301,0.972382,1.2395,1.18608,1.27512,1.27512,1.29293,1.31074,1.32855,1.32855,1.34635,1.34635,1.32855,1.27512,1.18608,1.06142,0.90115,0.740876,0.616219,0.50937,0.544986,0.544986,0.50937,0.242248,0.473754,0.473754,0.491562,0.740876,1.09704,1.29293,1.31074,1.32855,1.31074,1.38197,1.38197,1.38197,1.27512,1.27512,1.29293,1.32855,1.34635,1.29293,1.06142,0.794301,0.580603,0.473754,0.384713,0.402521,0.651836,0.990191,1.36416,1.54224,1.54224,1.57786,1.59567,1.59567,1.59567,1.57786,1.56005,1.54224,1.52444,1.47101,1.36416,1.18608,0.972382,0.883342
3.96415,1.04362,3.89292,3.55457,3.71484,3.69703,3.6258,3.59018,3.53676,3.48333,3.4121,3.35868,3.50114,3.73265,3.96415,3.96415,3.96415,3.82169,3.53676,3.32306,3.35868,3.53676,3.67922,3.6258,3.50114,3.48333,3.64361,3.57237,3.10936,3.09155,2.93128,2.57512,2.07649,2.1121,2.18334,2.64635,2.50388,2.14772,1.75594,2.21895,2.34361,2.27238,2.18334,2.04087,1.75594,1.72033,1.77375,1.80937,1.75594,1.72033,1.72033,1.72033,1.72033,1.72033,1.72033,1.79156,1.84498,1.8806,1.84498,1.80937,1.77375,1.77375,1.79156,1.82717,1.8806,1.91621,1.91621,1.86279,1.82717,1.80937,1.82717,1.80937,1.80937,1.79156,1.72033,1.64909,1.57786,1.52444,1.48882,1.47101,1.48882,1.52444,1.07923,1.06142,1.16827,1.18608,1.2217,1.31074,1.38197,1.32855,1.31074,1.34635,1.32855,1.31074,1.27512,1.27512,1.27512,1.27512,1.2217,0.990191,0.972382,0.990191,1.02581,1.04362,1.04362,1.02581,0.990191,0.634027,0.616219,0.740876,0.740876,0.544986,0.0997825,-0.16734,0.0107417,-0.0961072,-0.185148,-0.0961072,0.153207,0.0285499,-0.0961072,-0.149532,-0.149532,-0.149532,-0.131724,-0.185148,-0.220764,-0.16734,-0.131724,-0.113915,-0.0782991,-0.0604909,-0.0604909,-0.0248746,-0.00706643,-0.00706643,0.0107417,0.0107417,0.0285499,0.0285499,0.046358,0.0285499,0.046358,0.0641662,0.0641662,0.0641662,0.0819744,0.0641662,0.0819744,0.0819744,0.0997825,0.135399,0.171015,0.188823,0.206631,0.22444,0.242248,0.260056,0.277864,0.277864,0.295672,0.31348,0.31348,0.046358,-0.0782991,0.0997825,0.22444,0.277864,0.31348,0.384713,0.402521,0.402521,0.402521,0.206631,-0.0961072,-0.0961072,0.117591,0.31348,0.384713,0.420329,0.438138,0.473754,0.117591,0.50937,0.527178,0.562795,0.580603,0.598411,0.0107417,0.0107417,0.384713,0.491562,0.562795,0.580603,0.598411,0.616219,0.616219,0.634027,0.634027,0.634027,0.651836,0.669644,0.669644,0.687452,0.687452,0.70526,0.723068,0.740876,0.740876,0.740876,0.723068,0.723068,0.723068,0.740876,0.776493,0.812109,0.812109,0.812109,0.847725,0.847725,0.70526,0.473754,0.31348,0.171015,0.188823,0.135399,0.242248,0.153207,0.260056,0.491562,0.829917,0.544986,0.384713,0.295672,0.22444,0.22444,0.651836,0.687452,0.812109,0.972382,1.2395,1.18608,1.29293,1.29293,1.29293,1.25731,1.18608,1.06142,0.936766,0.812109,0.723068,0.634027,0.544986,0.455946,0.349097,0.277864,0.242248,0.22444,0.242248,0.260056,0.384713,0.616219,1.02581,1.2217,1.25731,1.29293,1.29293,1.38197,1.38197,1.38197,1.2395,1.29293,1.31074,1.34635,1.36416,1.2395,0.829917,0.544986,0.384713,0.331289,0.277864,0.349097,0.527178,0.776493,1.54224,1.54224,1.54224,1.57786,1.59567,1.59567,1.59567,1.57786,1.56005,1.54224,1.52444,1.43539,1.25731,1.02581,0.812109,0.723068
-0.541311,1.36416,2.91347,3.82169,3.75046,3.69703,3.6258,3.57237,3.51895,3.46552,3.39429,3.34087,3.30525,3.44772,3.82169,3.98196,3.82169,3.53676,3.25183,3.07375,3.10936,3.51895,3.82169,3.80388,3.73265,3.73265,3.64361,3.30525,3.12717,3.18059,2.9669,2.64635,2.45046,2.55731,2.69977,2.64635,2.48608,2.21895,2.14772,2.34361,2.27238,2.21895,2.18334,2.1121,1.41759,1.64909,1.70252,1.80937,1.75594,1.72033,1.72033,1.72033,1.72033,1.72033,1.72033,1.70252,1.77375,1.82717,1.84498,1.80937,1.77375,1.77375,1.79156,1.82717,1.8806,1.91621,1.89841,1.86279,1.82717,1.80937,1.82717,1.80937,1.80937,1.75594,1.63128,1.57786,1.54224,1.50663,1.48882,1.48882,1.50663,1.4532,1.32855,1.25731,1.20389,1.20389,1.20389,1.27512,1.34635,1.32855,1.32855,1.32855,1.32855,1.31074,1.27512,1.27512,1.11485,1.04362,0.936766,0.70526,0.990191,0.669644,0.651836,0.669644,0.544986,0.544986,-0.274189,0.135399,0.277864,0.562795,0.687452,0.402521,0.046358,-0.0426828,-0.0961072,-0.256381,-0.256381,-0.16734,-0.0782991,-0.113915,-0.185148,-0.16734,-0.149532,-0.149532,-0.131724,-0.149532,-0.202956,-0.16734,-0.0782991,-0.0782991,-0.0782991,-0.0604909,-0.0426828,-0.0248746,-0.00706643,-0.00706643,0.0107417,0.0107417,0.0285499,0.0285499,0.046358,0.0641662,0.0819744,0.0819744,0.0997825,0.117591,0.117591,0.135399,0.153207,0.153207,0.171015,0.171015,0.188823,0.206631,0.22444,0.242248,0.242248,0.260056,0.277864,0.242248,0.188823,0.153207,-0.0961072,0.171015,0.349097,0.349097,0.349097,0.349097,0.366905,0.384713,0.384713,0.331289,0.402521,0.0997825,0.22444,0.420329,0.277864,0.366905,0.402521,0.366905,0.242248,-0.0426828,-0.0426828,0.188823,0.331289,0.420329,0.420329,0.402521,0.0997825,0.598411,0.616219,0.616219,0.580603,0.598411,0.598411,0.616219,0.616219,0.616219,0.616219,0.634027,0.651836,0.669644,0.669644,0.687452,0.687452,0.70526,0.723068,0.740876,0.740876,0.723068,0.723068,0.723068,0.723068,0.740876,0.758685,0.758685,0.758685,0.776493,0.812109,0.847725,0.580603,0.206631,0.0819744,0.188823,0.153207,0.117591,0.171015,0.135399,0.206631,0.242248,0.153207,0.22444,0.188823,0.206631,0.206631,0.22444,0.260056,0.277864,0.331289,0.634027,0.812109,0.990191,1.06142,0.990191,0.954574,0.936766,0.865533,0.812109,0.776493,0.723068,0.669644,0.580603,0.491562,0.402521,0.331289,0.260056,0.242248,0.22444,0.242248,0.260056,0.402521,0.634027,0.918958,1.09704,1.20389,1.27512,1.27512,1.38197,1.38197,1.38197,1.15046,1.36416,1.27512,1.38197,1.38197,1.16827,0.527178,0.31348,0.242248,0.22444,0.22444,0.331289,0.438138,0.598411,1.54224,1.54224,1.54224,1.57786,1.59567,1.59567,1.59567,1.57786,1.56005,1.54224,1.50663,1.34635,1.09704,0.847725,0.651836,0.580603
1.43539,1.52444,3.28744,3.76826,3.75046,3.69703,3.6258,3.59018,3.50114,3.44772,3.37648,3.32306,3.26964,3.21621,3.55457,3.98196,3.50114,3.16279,3.02032,2.94909,3.05594,3.46552,3.8395,3.87511,3.80388,3.64361,3.48333,3.35868,3.12717,3.18059,3.05594,3.02032,3.07375,3.14498,3.09155,2.64635,2.55731,2.3258,2.25457,2.34361,2.27238,2.18334,2.16553,2.04087,1.79156,1.80937,1.8806,1.82717,1.73813,1.70252,1.70252,1.70252,1.70252,1.70252,1.70252,1.68471,1.61348,1.59567,1.70252,1.75594,1.77375,1.77375,1.79156,1.82717,1.8806,1.89841,1.89841,1.86279,1.82717,1.80937,1.61348,1.50663,1.4532,1.27512,1.18608,1.29293,1.39978,1.41759,1.48882,1.48882,1.48882,1.4532,1.31074,1.2395,1.2217,1.2217,1.2217,1.25731,1.31074,1.32855,1.32855,1.32855,1.31074,1.29293,1.2395,1.15046,0.634027,0.277864,0.117591,0.0819744,-0.185148,0.153207,0.0285499,0.153207,0.046358,-0.274189,-0.274189,-0.274189,-0.185148,0.0819744,0.206631,0.117591,-0.0248746,-0.0961072,-0.149532,-0.256381,-0.274189,-0.202956,-0.185148,-0.185148,-0.16734,-0.16734,-0.149532,-0.131724,-0.113915,-0.0961072,-0.0961072,-0.238573,-0.238573,-0.185148,-0.0961072,-0.0426828,-0.0248746,-0.0248746,-0.00706643,0.0107417,0.0107417,0.0285499,0.046358,0.046358,0.046358,0.0641662,0.0819744,0.0819744,0.0997825,0.117591,0.117591,0.135399,0.153207,0.153207,0.171015,0.171015,0.188823,0.206631,0.22444,0.242248,0.242248,0.260056,0.277864,0.277864,0.046358,-0.113915,-0.113915,0.153207,0.242248,0.31348,0.366905,0.366905,0.384713,0.402521,0.402521,0.22444,-0.0961072,-0.0961072,0.0641662,0.153207,0.420329,0.438138,0.455946,0.473754,0.135399,0.527178,0.349097,0.420329,0.455946,0.349097,0.135399,0.0107417,0.0107417,0.22444,0.277864,0.349097,0.616219,0.616219,0.616219,0.616219,0.580603,0.598411,0.616219,0.634027,0.651836,0.669644,0.669644,0.687452,0.687452,0.687452,0.70526,0.723068,0.723068,0.723068,0.723068,0.723068,0.723068,0.740876,0.758685,0.758685,0.758685,0.776493,0.812109,0.829917,0.776493,0.580603,0.562795,0.384713,0.260056,0.171015,0.0997825,0.349097,0.117591,0.295672,0.135399,0.135399,0.171015,0.22444,0.206631,0.242248,0.31348,0.277864,0.349097,0.616219,0.883342,0.972382,0.883342,0.740876,0.669644,0.723068,0.794301,0.776493,0.740876,0.70526,0.651836,0.527178,0.438138,0.366905,0.295672,0.260056,0.22444,0.22444,0.22444,0.22444,0.50937,0.740876,0.847725,0.829917,0.918958,0.954574,1.008,0.758685,0.70526,0.527178,0.829917,1.41759,1.09704,1.4532,1.38197,1.11485,0.22444,0.188823,0.171015,0.171015,0.171015,0.260056,0.31348,0.384713,1.54224,1.54224,1.54224,1.57786,1.59567,1.59567,1.59567,1.57786,1.56005,1.54224,1.48882,1.2217,0.883342,0.634027,0.491562,0.438138
1.56005,1.32855,3.35868,3.75046,3.75046,3.69703,3.6258,3.57237,3.50114,3.44772,3.37648,3.32306,3.26964,3.32306,3.16279,3.69703,3.03813,2.9847,2.94909,2.89566,2.91347,3.16279,3.96415,3.39429,3.23402,3.10936,3.10936,3.12717,3.12717,3.05594,3.07375,3.23402,3.28744,3.21621,3.09155,2.64635,2.57512,2.41484,2.3258,2.34361,2.27238,2.18334,2.12991,2.1121,1.98745,1.95183,1.8806,1.82717,1.75594,1.70252,1.72033,1.72033,1.72033,1.70252,1.6669,1.56005,1.39978,1.27512,1.29293,1.36416,1.43539,1.43539,1.41759,1.52444,1.56005,1.63128,1.79156,1.82717,1.82717,1.56005,0.990191,0.544986,0.527178,0.50937,0.616219,0.723068,0.829917,0.990191,1.11485,1.48882,1.48882,1.41759,1.32855,1.25731,1.15046,1.09704,1.11485,1.15046,1.16827,1.31074,1.31074,1.31074,1.27512,1.20389,1.04362,0.70526,0.188823,-0.0782991,-0.113915,-0.185148,-0.185148,-0.185148,-0.131724,-0.0604909,-0.0426828,0.0107417,-0.274189,0.0641662,-0.185148,-0.256381,-0.185148,-0.185148,-0.256381,-0.16734,-0.16734,-0.256381,-0.220764,-0.274189,-0.220764,-0.185148,-0.16734,-0.16734,-0.149532,-0.131724,-0.113915,-0.113915,-0.131724,-0.16734,-0.185148,-0.185148,-0.113915,-0.0604909,-0.0961072,-0.0782991,-0.0426828,0.0107417,0.0285499,0.0285499,0.0107417,0.0285499,0.046358,0.0641662,0.0819744,0.0819744,0.0997825,0.117591,0.117591,0.135399,0.135399,0.117591,0.135399,0.0997825,0.0997825,0.0819744,0.0997825,0.135399,0.22444,0.0819744,-0.131724,-0.131724,0.0641662,0.295672,0.31348,0.331289,0.31348,0.331289,0.366905,0.366905,0.384713,0.295672,0.402521,0.135399,0.153207,0.0641662,0.135399,0.277864,0.402521,0.384713,0.22444,-0.0426828,-0.0426828,0.277864,0.544986,0.562795,0.580603,0.580603,0.31348,-0.00706643,0.188823,0.366905,0.473754,0.527178,0.598411,0.598411,0.598411,0.616219,0.616219,0.634027,0.634027,0.651836,0.651836,0.669644,0.669644,0.669644,0.669644,0.669644,0.687452,0.687452,0.687452,0.70526,0.723068,0.723068,0.723068,0.740876,0.758685,0.758685,0.758685,0.758685,0.794301,0.847725,0.865533,0.883342,0.90115,0.331289,0.491562,0.295672,0.50937,0.972382,0.544986,1.008,0.402521,0.117591,0.420329,0.153207,0.188823,0.188823,0.491562,0.22444,0.455946,0.687452,1.008,1.02581,0.829917,0.580603,0.616219,0.723068,0.829917,0.758685,0.723068,0.687452,0.634027,0.455946,0.366905,0.31348,0.277864,0.242248,0.22444,0.22444,0.22444,0.22444,0.544986,0.829917,0.812109,0.651836,0.616219,0.562795,0.580603,0.455946,0.384713,0.384713,0.153207,0.135399,0.847725,1.27512,1.13266,0.794301,0.171015,0.153207,0.153207,0.153207,0.171015,0.206631,0.277864,0.171015,1.54224,1.54224,1.54224,1.57786,1.59567,1.59567,1.59567,1.57786,1.56005,1.54224,1.4532,1.02581,0.580603,0.420329,0.366905,0.331289
1.32855,1.57786,3.35868,3.69703,3.73265,3.69703,3.6258,3.57237,3.50114,3.44772,3.37648,3.32306,3.28744,3.30525,3.37648,3.46552,3.28744,3.18059,3.05594,2.9847,2.84224,2.78881,2.73539,2.66416,2.59293,2.5395,2.84224,3.12717,2.86005,2.84224,3.05594,3.35868,3.30525,3.07375,3.00251,2.64635,2.61073,2.59293,2.5395,2.34361,2.41484,2.18334,2.14772,2.0943,2.02306,1.93402,1.86279,1.80937,1.73813,1.72033,1.72033,1.72033,1.6669,1.61348,1.54224,1.41759,1.2395,1.20389,1.15046,1.07923,1.04362,1.04362,0.972382,1.20389,1.07923,1.20389,1.34635,1.27512,1.2395,0.954574,0.50937,0.455946,0.420329,0.420329,0.455946,0.50937,0.544986,0.562795,0.580603,1.02581,1.47101,1.43539,1.31074,0.990191,0.758685,0.616219,0.70526,0.598411,0.687452,0.794301,0.616219,0.740876,0.794301,0.829917,0.794301,0.455946,0.0819744,-0.0782991,-0.113915,-0.0961072,-0.185148,0.0285499,-0.113915,-0.0961072,-0.0961072,-0.131724,-0.274189,-0.202956,-0.291997,-0.309805,-0.274189,-0.256381,-0.256381,-0.256381,-0.220764,-0.238573,-0.238573,-0.256381,-0.220764,-0.185148,-0.16734,-0.149532,-0.149532,-0.131724,-0.113915,-0.113915,-0.0961072,-0.0961072,-0.0961072,-0.149532,-0.238573,-0.238573,-0.202956,-0.113915,-0.0604909,-0.0426828,-0.0426828,-0.0604909,-0.0782991,-0.0782991,-0.0426828,-0.0248746,-0.00706643,0.0107417,-0.00706643,0.0285499,0.046358,0.046358,-0.00706643,-0.0426828,-0.113915,-0.113915,-0.131724,-0.131724,-0.0961072,-0.0248746,-0.149532,-0.149532,-0.149532,-0.0961072,0.046358,0.188823,0.22444,0.331289,0.349097,0.349097,0.349097,0.366905,0.277864,0.0997825,-0.113915,-0.113915,0.117591,0.420329,0.420329,0.420329,0.420329,0.384713,0.22444,-0.0604909,0.0285499,0.331289,0.491562,0.50937,0.50937,0.580603,0.277864,0.135399,0.598411,0.544986,0.580603,0.598411,0.598411,0.544986,0.438138,0.260056,-0.0604909,-0.0604909,0.277864,0.651836,0.651836,0.651836,0.651836,0.651836,0.669644,0.669644,0.669644,0.669644,0.687452,0.70526,0.723068,0.723068,0.740876,0.758685,0.758685,0.776493,0.776493,0.776493,0.794301,0.847725,0.865533,0.865533,0.687452,0.31348,0.0285499,0.206631,0.0641662,0.295672,0.0997825,0.0997825,0.420329,1.04362,1.06142,0.616219,1.11485,0.491562,1.16827,0.206631,0.687452,0.491562,1.20389,0.972382,0.616219,0.366905,0.723068,0.829917,0.883342,0.669644,0.634027,0.687452,0.616219,0.349097,0.295672,0.260056,0.260056,0.242248,0.22444,0.22444,0.22444,0.22444,0.580603,0.918958,0.829917,0.651836,0.562795,0.384713,0.295672,0.260056,0.260056,0.331289,0.153207,0.491562,0.723068,0.918958,0.669644,0.171015,0.171015,0.153207,0.153207,0.153207,0.171015,0.188823,0.22444,0.420329,1.04362,1.54224,1.52444,1.56005,1.59567,1.59567,1.54224,1.52444,1.43539,1.34635,1.07923,0.687452,0.242248,0.31348,0.295672,0.277864
2.94909,3.14498,3.69703,3.76826,3.78607,3.73265,3.66141,3.57237,3.50114,3.44772,3.37648,3.32306,3.30525,3.32306,3.37648,3.4121,3.30525,3.16279,3.02032,2.93128,2.84224,2.82443,2.84224,2.78881,2.73539,2.71758,2.46827,2.94909,2.36142,2.69977,2.82443,3.10936,2.84224,2.68197,2.66416,2.52169,2.59293,2.73539,2.80662,2.45046,2.27238,2.18334,2.14772,2.1121,2.02306,1.95183,1.86279,1.79156,1.77375,1.75594,1.75594,1.6669,1.57786,1.52444,1.43539,1.31074,1.2395,1.20389,1.15046,1.09704,1.02581,0.990191,0.972382,0.972382,0.972382,0.954574,0.990191,0.936766,0.740876,0.598411,0.491562,0.455946,0.420329,0.420329,0.455946,0.50937,0.544986,0.562795,0.544986,0.544986,1.32855,0.990191,0.776493,0.562795,0.366905,0.331289,0.331289,0.331289,0.31348,0.349097,0.242248,0.260056,0.331289,0.455946,0.420329,0.242248,-0.00706643,-0.0961072,-0.113915,-0.131724,-0.185148,-0.149532,-0.202956,-0.238573,-0.238573,-0.202956,-0.256381,-0.291997,-0.309805,-0.309805,-0.291997,-0.291997,-0.256381,-0.274189,-0.238573,-0.238573,-0.238573,-0.238573,-0.220764,-0.185148,-0.185148,-0.185148,-0.149532,-0.131724,-0.131724,-0.131724,-0.113915,-0.113915,-0.0961072,-0.0961072,-0.0426828,-0.0426828,-0.0248746,-0.113915,-0.202956,-0.202956,-0.202956,-0.202956,-0.185148,-0.16734,-0.149532,-0.131724,-0.149532,-0.149532,-0.16734,-0.16734,-0.16734,-0.16734,-0.16734,-0.149532,-0.149532,-0.149532,-0.16734,-0.149532,-0.149532,-0.149532,-0.149532,-0.131724,-0.131724,-0.0961072,0.0641662,0.188823,0.260056,0.331289,0.331289,0.331289,0.349097,0.366905,0.366905,-0.131724,-0.113915,-0.00706643,0.206631,0.277864,0.277864,0.420329,0.438138,0.438138,0.455946,-0.0782991,0.242248,0.420329,0.473754,0.473754,0.402521,0.260056,-0.0426828,0.153207,0.420329,0.598411,0.598411,0.616219,0.598411,0.580603,0.420329,0.0819744,-0.0782991,0.0285499,0.349097,0.616219,0.616219,0.634027,0.616219,0.651836,0.669644,0.669644,0.669644,0.669644,0.687452,0.70526,0.723068,0.723068,0.740876,0.776493,0.776493,0.794301,0.812109,0.812109,0.829917,0.847725,0.847725,0.723068,0.331289,0.0107417,0.0107417,0.0819744,0.0641662,0.206631,0.0819744,0.135399,0.31348,0.0997825,0.31348,0.50937,0.438138,0.171015,0.544986,0.349097,0.188823,0.616219,0.972382,1.2395,0.206631,0.188823,1.25731,0.70526,1.29293,0.206631,0.758685,0.794301,0.616219,0.22444,0.22444,0.242248,0.242248,0.242248,0.22444,0.22444,0.22444,0.22444,0.616219,1.06142,0.829917,0.598411,0.50937,0.384713,0.242248,0.22444,0.206631,0.153207,0.153207,0.366905,0.580603,0.580603,0.366905,0.153207,0.153207,0.153207,0.153207,0.188823,0.171015,0.188823,0.188823,0.171015,0.634027,1.54224,1.32855,1.31074,1.59567,1.43539,1.39978,1.18608,1.02581,0.829917,0.562795,0.277864,0.242248,0.242248,0.242248,0.242248
3.21621,3.94635,3.94635,3.91073,3.87511,3.80388,3.69703,3.64361,3.57237,3.51895,3.42991,3.37648,3.34087,3.34087,3.37648,3.37648,3.32306,3.18059,3.00251,2.91347,2.84224,2.84224,2.84224,2.9669,3.00251,3.03813,3.16279,3.14498,3.55457,3.05594,3.02032,2.82443,2.37923,2.05868,2.3258,1.95183,2.93128,2.87786,2.39704,2.36142,2.27238,2.18334,2.14772,2.1121,2.04087,1.91621,1.86279,1.79156,1.77375,1.77375,1.64909,1.57786,1.4532,1.50663,1.43539,1.31074,1.2217,1.18608,1.13266,1.09704,1.02581,0.990191,0.972382,0.972382,0.972382,0.954574,0.936766,0.865533,0.723068,0.580603,0.491562,0.438138,0.420329,0.420329,0.455946,0.50937,0.544986,0.562795,0.544986,0.544986,0.544986,0.544986,0.402521,0.366905,0.366905,0.331289,0.331289,0.331289,0.31348,0.260056,0.242248,0.260056,0.277864,0.277864,0.260056,0.117591,-0.0604909,-0.113915,-0.131724,-0.149532,-0.185148,-0.220764,-0.238573,-0.238573,-0.238573,-0.238573,-0.256381,-0.274189,-0.309805,-0.309805,-0.291997,-0.309805,-0.291997,-0.291997,-0.238573,-0.256381,-0.238573,-0.238573,-0.256381,-0.309805,-0.309805,-0.220764,-0.149532,-0.149532,-0.131724,-0.131724,-0.0961072,-0.0782991,-0.0604909,-0.0782991,-0.0604909,-0.0426828,-0.0604909,-0.113915,-0.16734,-0.202956,-0.220764,-0.220764,-0.185148,-0.185148,-0.185148,-0.185148,-0.185148,-0.185148,-0.185148,-0.185148,-0.16734,-0.16734,-0.16734,-0.16734,-0.16734,-0.16734,-0.16734,-0.149532,-0.131724,-0.131724,-0.131724,-0.131724,-0.131724,-0.0604909,0.0285499,0.135399,0.171015,0.188823,0.135399,0.188823,0.331289,0.206631,-0.149532,0.0819744,0.384713,0.384713,0.349097,0.366905,0.366905,0.420329,0.295672,0.135399,0.0107417,0.242248,0.491562,0.50937,0.50937,0.50937,0.349097,0.0819744,-0.0604909,0.188823,0.420329,0.580603,0.598411,0.616219,0.598411,0.598411,0.616219,-0.0782991,-0.0782991,0.22444,0.420329,0.562795,0.616219,0.544986,0.455946,0.651836,0.580603,0.598411,0.616219,0.687452,0.687452,0.70526,0.723068,0.723068,0.740876,0.776493,0.776493,0.794301,0.812109,0.829917,0.847725,0.865533,0.847725,0.634027,0.206631,0.0285499,0.0107417,0.0641662,0.0641662,0.135399,0.0819744,0.153207,0.206631,0.0997825,0.135399,0.135399,0.188823,0.153207,0.366905,0.31348,0.188823,0.562795,0.669644,0.206631,0.22444,0.260056,0.242248,0.22444,0.242248,0.277864,0.260056,0.260056,0.31348,0.295672,0.295672,0.260056,0.242248,0.22444,0.22444,0.22444,0.22444,0.22444,0.669644,1.2395,0.865533,0.491562,0.384713,0.295672,0.242248,0.206631,0.188823,0.153207,0.153207,0.331289,0.473754,0.384713,0.31348,0.153207,0.153207,0.153207,0.206631,0.206631,0.188823,0.188823,0.188823,0.171015,0.171015,0.883342,0.723068,0.776493,1.59567,1.29293,1.09704,0.70526,0.562795,0.438138,0.331289,0.260056,0.22444,0.242248,0.242248,0.242248
3.94635,3.94635,3.94635,3.92854,3.87511,3.80388,3.75046,3.67922,3.6258,3.55457,3.50114,3.44772,3.37648,3.34087,3.34087,3.30525,3.23402,3.12717,3.05594,3.05594,3.12717,3.14498,3.03813,3.32306,3.48333,3.50114,3.69703,3.30525,3.25183,3.16279,3.00251,2.71758,2.61073,2.68197,2.66416,3.00251,1.91621,1.82717,1.79156,2.04087,2.07649,2.20115,2.1121,2.14772,2.00526,1.93402,1.8806,1.80937,1.79156,1.63128,1.52444,1.4532,1.4532,1.4532,1.39978,1.31074,1.20389,1.15046,1.11485,1.07923,1.02581,0.990191,0.972382,0.972382,0.972382,0.954574,0.918958,0.829917,0.70526,0.598411,0.527178,0.455946,0.402521,0.402521,0.491562,0.527178,0.544986,0.562795,0.544986,0.544986,0.544986,0.473754,0.384713,0.366905,0.366905,0.331289,0.331289,0.331289,0.31348,0.260056,0.22444,0.260056,0.277864,0.277864,0.260056,0.135399,-0.0248746,-0.131724,-0.149532,-0.16734,-0.185148,-0.220764,-0.220764,-0.238573,-0.238573,-0.256381,-0.256381,-0.274189,-0.309805,-0.309805,-0.327613,-0.327613,-0.327613,-0.327613,-0.238573,-0.256381,-0.220764,-0.220764,-0.220764,-0.220764,-0.220764,-0.238573,-0.16734,-0.185148,-0.16734,-0.131724,-0.0961072,-0.0782991,-0.0782991,-0.0782991,-0.0604909,-0.0426828,-0.0604909,-0.113915,-0.16734,-0.202956,-0.220764,-0.202956,-0.185148,-0.185148,-0.185148,-0.185148,-0.185148,-0.185148,-0.185148,-0.185148,-0.16734,-0.16734,-0.16734,-0.149532,-0.149532,-0.149532,-0.149532,-0.149532,-0.131724,-0.131724,-0.131724,-0.131724,-0.113915,-0.0782991,-0.0426828,-0.0426828,-0.0248746,-0.0782991,-0.0604909,-0.00706643,-0.149532,-0.149532,-0.149532,0.117591,0.277864,0.384713,0.384713,0.402521,0.402521,0.331289,0.0997825,-0.131724,-0.113915,0.0819744,0.295672,0.438138,0.527178,0.527178,0.527178,0.188823,-0.0604909,0.242248,0.420329,0.527178,0.580603,0.598411,0.598411,0.455946,0.366905,0.046358,0.634027,0.651836,0.598411,0.634027,0.651836,0.473754,0.117591,-0.0782991,0.260056,0.491562,0.616219,0.687452,0.687452,0.70526,0.723068,0.723068,0.740876,0.776493,0.776493,0.794301,0.812109,0.829917,0.847725,0.865533,0.883342,0.740876,0.50937,0.135399,-0.00706643,0.0641662,0.0641662,0.117591,0.0819744,0.153207,0.188823,0.0819744,0.135399,0.153207,0.171015,0.153207,0.242248,0.242248,0.206631,0.438138,0.50937,0.206631,0.242248,0.242248,0.295672,0.295672,0.277864,0.260056,0.295672,0.295672,0.31348,0.295672,0.295672,0.260056,0.242248,0.22444,0.22444,0.22444,0.22444,0.455946,0.669644,1.4532,0.669644,0.366905,0.260056,0.22444,0.206631,0.206631,0.188823,0.153207,0.153207,0.295672,0.349097,0.260056,0.349097,0.153207,0.153207,0.153207,0.260056,0.206631,0.188823,0.188823,0.188823,0.171015,0.171015,0.349097,0.22444,0.206631,0.206631,0.206631,0.206631,0.331289,0.295672,0.295672,0.277864,0.242248,0.22444,0.242248,0.242248,0.242248
3.94635,3.94635,3.94635,3.92854,3.87511,3.80388,3.75046,3.67922,3.6258,3.55457,3.50114,3.44772,3.39429,3.34087,3.28744,3.23402,3.18059,3.12717,3.10936,3.1984,3.42991,3.60799,3.67922,3.73265,3.67922,3.78607,3.48333,3.14498,3.26964,3.14498,3.00251,2.93128,2.93128,3.12717,2.78881,2.62854,2.3258,2.21895,2.20115,2.36142,2.27238,2.20115,1.91621,2.50388,2.02306,1.84498,1.8806,1.82717,1.72033,1.50663,1.56005,1.39978,1.4532,1.4532,1.31074,1.2217,1.20389,1.15046,1.11485,1.07923,1.02581,0.990191,0.972382,0.972382,0.972382,0.954574,0.90115,0.812109,0.740876,0.669644,0.616219,0.544986,0.402521,0.402521,0.473754,0.544986,0.544986,0.562795,0.544986,0.544986,0.544986,0.473754,0.384713,0.366905,0.366905,0.331289,0.331289,0.331289,0.31348,0.331289,0.188823,0.331289,0.277864,0.260056,0.22444,0.153207,0.0285499,-0.0782991,-0.149532,-0.185148,-0.202956,-0.220764,-0.220764,-0.238573,-0.256381,-0.274189,-0.309805,-0.291997,-0.309805,-0.291997,-0.309805,-0.309805,-0.309805,-0.291997,-0.256381,-0.238573,-0.202956,-0.185148,-0.185148,-0.16734,-0.185148,-0.309805,-0.309805,-0.309805,-0.202956,-0.0961072,-0.113915,-0.0961072,-0.0961072,-0.0782991,-0.0604909,-0.0426828,-0.0604909,-0.0961072,-0.16734,-0.202956,-0.220764,-0.202956,-0.185148,-0.185148,-0.185148,-0.185148,-0.185148,-0.185148,-0.185148,-0.185148,-0.16734,-0.16734,-0.16734,-0.149532,-0.149532,-0.149532,-0.149532,-0.149532,-0.149532,-0.16734,-0.149532,-0.149532,-0.149532,-0.149532,-0.149532,-0.131724,-0.131724,-0.131724,-0.149532,-0.149532,-0.149532,-0.113915,-0.0961072,0.0285499,0.188823,0.384713,0.384713,0.402521,0.402521,0.420329,0.135399,-0.131724,0.0997825,0.22444,0.331289,0.438138,0.527178,0.402521,0.242248,0.153207,0.242248,0.562795,0.50937,0.544986,0.562795,0.580603,0.473754,0.188823,-0.0782991,-0.0782991,0.171015,0.22444,0.651836,0.651836,0.669644,0.580603,0.22444,-0.0782991,0.384713,0.580603,0.634027,0.669644,0.687452,0.651836,0.651836,0.723068,0.740876,0.776493,0.776493,0.794301,0.812109,0.829917,0.847725,0.865533,0.883342,0.90115,0.918958,0.31348,-0.00706643,0.0641662,0.135399,0.22444,0.0641662,0.295672,0.384713,0.0819744,0.117591,0.188823,0.153207,0.206631,0.22444,0.188823,0.206631,0.331289,0.31348,0.242248,0.260056,0.260056,0.277864,0.277864,0.277864,0.260056,0.242248,0.277864,0.295672,0.277864,0.277864,0.242248,0.242248,0.22444,0.22444,0.22444,0.331289,0.776493,1.4532,1.4532,0.812109,0.22444,0.206631,0.188823,0.188823,0.188823,0.188823,0.153207,0.153207,0.206631,0.242248,0.22444,0.153207,0.153207,0.153207,0.455946,0.366905,0.206631,0.188823,0.188823,0.188823,0.171015,0.206631,0.22444,0.206631,0.206631,0.206631,0.206631,0.206631,0.206631,0.242248,0.295672,0.277864,0.242248,0.22444,0.242248,0.242248,0.242248
3.96415,3.96415,3.96415,3.91073,3.8573,3.78607,3.73265,3.66141,3.60799,3.53676,3.48333,3.42991,3.37648,3.32306,3.26964,3.21621,3.16279,3.10936,3.07375,3.16279,3.48333,3.87511,3.92854,3.82169,3.8573,3.75046,3.50114,3.14498,3.23402,3.16279,3.10936,3.09155,3.1984,2.91347,2.66416,2.61073,2.36142,2.29019,2.29019,2.36142,2.27238,2.30799,2.34361,2.04087,2.00526,1.95183,1.91621,1.84498,1.6669,1.48882,1.34635,1.43539,1.4532,1.4532,1.38197,1.15046,1.20389,1.13266,1.11485,1.07923,1.02581,0.990191,0.972382,0.972382,0.972382,0.954574,0.90115,0.829917,0.776493,0.740876,0.669644,0.562795,0.402521,0.402521,0.420329,0.562795,0.580603,0.544986,0.527178,0.527178,0.50937,0.473754,0.420329,0.366905,0.366905,0.331289,0.331289,0.31348,0.260056,0.188823,0.188823,0.188823,0.188823,0.188823,0.171015,0.0997825,-0.00706643,-0.0604909,-0.131724,-0.16734,-0.202956,-0.220764,-0.238573,-0.220764,-0.256381,-0.274189,-0.256381,-0.274189,-0.291997,-0.291997,-0.327613,-0.345421,-0.345421,-0.309805,-0.256381,-0.238573,-0.202956,-0.202956,-0.185148,-0.185148,-0.202956,-0.256381,-0.238573,-0.256381,-0.185148,-0.131724,-0.149532,-0.185148,-0.185148,-0.149532,-0.131724,-0.113915,-0.113915,-0.131724,-0.185148,-0.220764,-0.220764,-0.202956,-0.185148,-0.185148,-0.185148,-0.185148,-0.238573,-0.220764,-0.202956,-0.185148,-0.16734,-0.16734,-0.16734,-0.149532,-0.16734,-0.16734,-0.16734,-0.16734,-0.16734,-0.16734,-0.149532,-0.149532,-0.16734,-0.16734,-0.149532,-0.149532,-0.149532,-0.149532,-0.149532,-0.131724,-0.131724,-0.113915,-0.0782991,0.046358,0.242248,0.331289,0.366905,0.402521,0.384713,0.188823,0.046358,0.206631,0.455946,0.402521,0.438138,0.455946,0.438138,0.277864,0.046358,-0.113915,0.0819744,0.31348,0.580603,0.580603,0.580603,0.598411,0.455946,0.0997825,-0.0961072,-0.0248746,0.135399,0.455946,0.616219,0.634027,0.651836,0.669644,0.687452,0.0641662,0.70526,0.634027,0.687452,0.687452,0.687452,0.544986,0.473754,0.580603,0.634027,0.669644,0.687452,0.740876,0.794301,0.829917,0.847725,0.865533,0.883342,0.883342,0.865533,-0.00706643,0.918958,0.936766,0.0285499,0.972382,0.242248,1.04362,1.06142,0.0641662,0.117591,0.402521,0.153207,0.580603,0.455946,0.171015,0.260056,0.31348,0.22444,0.188823,0.295672,0.31348,0.295672,0.366905,0.277864,0.260056,0.242248,0.260056,0.31348,0.260056,0.242248,0.242248,0.242248,0.242248,0.242248,0.242248,0.420329,0.651836,0.598411,0.669644,0.22444,0.22444,0.206631,0.206631,0.206631,0.206631,0.188823,0.171015,0.171015,0.206631,0.22444,0.242248,0.349097,0.153207,1.2217,0.634027,0.420329,0.206631,0.206631,0.206631,0.206631,0.260056,0.206631,0.22444,0.22444,0.22444,0.22444,0.22444,0.22444,0.349097,0.384713,0.349097,0.260056,0.22444,0.22444,0.22444,0.22444,0.22444
3.94635,3.94635,3.94635,3.92854,3.8395,3.76826,3.71484,3.64361,3.59018,3.51895,3.46552,3.4121,3.35868,3.30525,3.25183,3.1984,3.14498,3.09155,3.03813,2.9847,3.10936,3.42991,3.67922,3.55457,3.69703,3.48333,3.16279,3.16279,3.18059,3.21621,3.21621,3.28744,3.14498,2.82443,2.66416,2.62854,2.43265,2.34361,2.36142,2.36142,2.41484,2.20115,2.1121,2.04087,1.98745,1.91621,1.8806,1.80937,1.68471,1.61348,1.56005,1.50663,1.47101,1.25731,0.865533,1.13266,1.16827,1.11485,1.09704,1.06142,1.02581,1.008,0.972382,0.972382,0.972382,0.954574,0.90115,0.812109,0.776493,0.740876,0.70526,0.598411,0.473754,0.420329,0.491562,0.544986,0.580603,0.544986,0.527178,0.50937,0.491562,0.438138,0.438138,0.402521,0.366905,0.331289,0.331289,0.260056,0.188823,0.188823,0.188823,0.188823,0.188823,0.188823,0.135399,0.046358,-0.0248746,-0.0604909,-0.113915,-0.149532,-0.185148,-0.185148,-0.16734,-0.202956,-0.220764,-0.274189,-0.256381,-0.274189,-0.291997,-0.309805,-0.327613,-0.345421,-0.309805,-0.291997,-0.256381,-0.238573,-0.238573,-0.220764,-0.202956,-0.185148,-0.185148,-0.149532,-0.149532,-0.149532,-0.327613,-0.309805,-0.309805,-0.291997,-0.274189,-0.256381,-0.256381,-0.256381,-0.256381,-0.256381,-0.256381,-0.274189,-0.256381,-0.238573,-0.238573,-0.256381,-0.238573,-0.220764,-0.220764,-0.220764,-0.202956,-0.202956,-0.185148,-0.185148,-0.16734,-0.149532,-0.185148,-0.185148,-0.16734,-0.16734,-0.16734,-0.16734,-0.149532,-0.149532,-0.16734,-0.16734,-0.149532,-0.149532,-0.16734,-0.149532,-0.149532,-0.131724,-0.131724,-0.113915,-0.0604909,0.0107417,0.0819744,0.0997825,0.171015,0.260056,0.153207,-0.149532,-0.149532,0.046358,0.206631,0.455946,0.473754,0.473754,0.402521,0.260056,-0.00706643,-0.131724,0.0641662,0.349097,0.580603,0.562795,0.580603,0.598411,0.616219,0.153207,-0.113915,0.188823,0.331289,0.473754,0.562795,0.491562,0.31348,0.206631,-0.0961072,0.135399,0.438138,0.70526,0.723068,0.723068,0.687452,0.473754,0.331289,0.491562,0.598411,0.580603,0.616219,0.70526,0.70526,0.651836,0.847725,0.580603,0.544986,0.455946,-0.00706643,0.135399,0.22444,0.0285499,0.0285499,0.0641662,0.206631,0.0819744,0.0819744,0.580603,0.31348,1.13266,0.153207,1.15046,1.18608,0.438138,0.455946,0.527178,0.188823,0.188823,0.616219,0.22444,0.295672,0.580603,0.384713,0.295672,0.31348,0.473754,0.402521,0.242248,0.242248,0.242248,0.242248,0.242248,0.242248,0.277864,0.402521,0.420329,0.349097,0.22444,0.22444,0.22444,0.206631,0.206631,0.206631,0.206631,0.188823,0.188823,0.188823,0.22444,0.242248,0.260056,0.331289,0.153207,1.52444,0.473754,0.206631,0.206631,0.206631,0.687452,0.598411,0.31348,0.22444,0.22444,0.22444,0.22444,0.22444,0.22444,0.598411,0.651836,0.527178,0.31348,0.242248,0.22444,0.22444,0.22444,0.22444,0.22444
3.92854,3.92854,3.92854,3.91073,3.8395,3.76826,3.71484,3.64361,3.59018,3.51895,3.46552,3.42991,3.34087,3.28744,3.23402,3.18059,3.12717,3.07375,3.02032,2.9669,2.93128,3.00251,2.87786,3.00251,3.07375,3.03813,3.16279,3.07375,3.16279,3.28744,3.39429,3.25183,2.9669,2.77101,2.68197,2.62854,2.5395,2.41484,2.36142,2.78881,2.27238,2.20115,2.1121,2.04087,1.95183,1.89841,1.84498,1.80937,1.72033,1.64909,1.57786,1.50663,1.39978,1.36416,1.2395,1.20389,1.18608,1.09704,1.07923,1.04362,1.02581,1.008,0.972382,0.954574,0.954574,0.918958,0.865533,0.812109,0.794301,0.776493,0.740876,0.687452,0.562795,0.50937,0.562795,0.580603,0.598411,0.544986,0.50937,0.50937,0.491562,0.420329,0.438138,0.420329,0.384713,0.366905,0.31348,0.260056,0.22444,0.206631,0.188823,0.206631,0.188823,0.153207,0.0997825,-0.00706643,-0.0248746,-0.0426828,-0.0782991,-0.131724,-0.16734,-0.16734,-0.16734,-0.16734,-0.220764,-0.274189,-0.274189,-0.274189,-0.291997,-0.309805,-0.309805,-0.327613,-0.309805,-0.309805,-0.309805,-0.327613,-0.291997,-0.238573,-0.185148,-0.16734,-0.16734,-0.16734,-0.16734,-0.185148,-0.238573,-0.256381,-0.309805,-0.291997,-0.291997,-0.291997,-0.291997,-0.291997,-0.291997,-0.291997,-0.291997,-0.291997,-0.274189,-0.274189,-0.256381,-0.274189,-0.256381,-0.238573,-0.238573,-0.220764,-0.220764,-0.202956,-0.202956,-0.185148,-0.185148,-0.185148,-0.185148,-0.185148,-0.16734,-0.16734,-0.16734,-0.16734,-0.149532,-0.149532,-0.16734,-0.16734,-0.149532,-0.149532,-0.16734,-0.149532,-0.149532,-0.131724,-0.131724,-0.113915,-0.0782991,-0.113915,-0.113915,-0.113915,-0.0604909,-0.149532,-0.149532,-0.149532,-0.0604909,0.0285499,0.242248,0.455946,0.473754,0.473754,0.491562,0.491562,-0.131724,0.171015,0.260056,0.384713,0.527178,0.544986,0.580603,0.544986,0.473754,-0.131724,0.242248,0.616219,0.598411,0.634027,0.634027,0.438138,0.0641662,-0.0961072,-0.0961072,0.0819744,0.384713,0.70526,0.723068,0.527178,0.740876,0.188823,0.117591,0.758685,0.634027,0.544986,0.634027,0.740876,0.562795,0.22444,-0.0426828,0.188823,0.153207,-0.00706643,-0.00706643,0.0641662,0.046358,0.0285499,0.0641662,0.046358,0.117591,0.0819744,0.0819744,0.117591,0.31348,0.384713,0.135399,0.438138,0.171015,0.171015,0.455946,1.2395,0.188823,1.25731,1.29293,0.22444,0.331289,0.90115,0.295672,0.242248,0.70526,0.847725,0.70526,0.260056,0.260056,0.260056,0.260056,0.260056,0.260056,0.295672,0.384713,0.366905,0.31348,0.22444,0.22444,0.22444,0.22444,0.22444,0.171015,0.153207,0.171015,0.188823,0.206631,0.206631,0.206631,0.22444,0.153207,0.349097,0.90115,0.22444,0.90115,1.02581,1.61348,1.25731,0.883342,0.242248,0.242248,0.242248,0.242248,0.242248,0.242248,0.473754,0.758685,0.972382,0.616219,0.260056,0.242248,0.242248,0.242248,0.242248,0.242248,0.242248
3.91073,3.91073,3.91073,3.89292,3.8395,3.76826,3.71484,3.64361,3.59018,3.51895,3.46552,3.4121,3.34087,3.28744,3.23402,3.18059,3.12717,3.07375,3.02032,2.9847,2.91347,2.84224,2.77101,2.71758,2.66416,2.59293,2.94909,3.03813,3.10936,3.46552,2.91347,2.73539,2.5395,2.68197,2.48608,2.52169,2.69977,2.64635,2.5395,2.29019,2.21895,2.18334,2.1121,2.04087,1.98745,1.8806,1.84498,1.79156,1.72033,1.63128,1.57786,1.48882,1.41759,1.36416,1.29293,1.2395,1.18608,1.11485,1.09704,1.06142,1.02581,1.008,0.972382,0.954574,0.90115,0.90115,0.829917,0.812109,0.794301,0.776493,0.740876,0.70526,0.651836,0.669644,0.634027,0.634027,0.598411,0.544986,0.50937,0.50937,0.473754,0.438138,0.420329,0.420329,0.402521,0.349097,0.295672,0.242248,0.22444,0.206631,0.188823,0.188823,0.171015,0.135399,0.0641662,-0.00706643,-0.0426828,-0.0604909,-0.0782991,-0.113915,-0.16734,-0.185148,-0.185148,-0.185148,-0.202956,-0.256381,-0.291997,-0.291997,-0.291997,-0.291997,-0.291997,-0.274189,-0.291997,-0.309805,-0.309805,-0.309805,-0.327613,-0.185148,-0.16734,-0.16734,-0.16734,-0.16734,-0.16734,-0.202956,-0.238573,-0.274189,-0.309805,-0.291997,-0.291997,-0.291997,-0.291997,-0.291997,-0.291997,-0.291997,-0.291997,-0.291997,-0.291997,-0.274189,-0.274189,-0.274189,-0.256381,-0.238573,-0.238573,-0.220764,-0.220764,-0.202956,-0.202956,-0.185148,-0.185148,-0.185148,-0.185148,-0.185148,-0.16734,-0.16734,-0.16734,-0.16734,-0.149532,-0.149532,-0.16734,-0.16734,-0.149532,-0.149532,-0.16734,-0.149532,-0.131724,-0.113915,-0.113915,-0.113915,-0.113915,-0.113915,-0.113915,-0.131724,-0.131724,-0.131724,-0.131724,-0.131724,-0.0961072,0.0285499,0.242248,0.277864,0.295672,0.117591,-0.131724,-0.0426828,0.50937,0.527178,0.491562,0.527178,0.544986,0.420329,0.242248,0.117591,-0.131724,-0.131724,0.242248,0.527178,0.634027,0.651836,0.669644,0.687452,-0.0961072,-0.0961072,0.135399,0.277864,0.455946,0.491562,0.402521,0.31348,-0.0782991,-0.0961072,0.135399,0.562795,0.794301,0.242248,0.829917,0.847725,0.865533,-0.0426828,-0.0426828,0.277864,-0.00706643,-0.00706643,0.171015,0.046358,0.046358,0.0641662,0.0641662,0.046358,0.0997825,0.0819744,0.0641662,0.0997825,0.22444,0.153207,0.135399,0.171015,0.171015,0.206631,0.402521,0.438138,0.188823,0.70526,0.580603,0.206631,0.31348,1.32855,0.50937,0.616219,1.38197,1.07923,1.38197,0.260056,0.260056,0.277864,0.277864,0.277864,0.277864,0.31348,0.366905,0.349097,0.295672,0.22444,0.242248,0.242248,0.206631,0.171015,0.135399,0.135399,0.153207,0.171015,0.188823,0.188823,0.171015,0.171015,0.206631,0.331289,0.22444,0.349097,0.598411,1.04362,1.32855,0.954574,0.260056,0.295672,0.242248,0.242248,0.242248,0.31348,0.402521,0.723068,1.06142,1.02581,0.580603,0.260056,0.242248,0.242248,0.242248,0.242248,0.242248,0.242248
3.89292,3.89292,3.89292,3.87511,3.8395,3.76826,3.71484,3.64361,3.59018,3.51895,3.46552,3.4121,3.34087,3.28744,3.23402,3.18059,3.12717,3.07375,3.02032,2.9847,2.91347,2.84224,2.7532,2.71758,2.84224,2.9847,3.16279,3.03813,2.9847,2.37923,2.30799,2.27238,2.20115,2.50388,2.07649,2.39704,3.00251,2.93128,2.36142,2.29019,2.20115,2.04087,2.1121,2.04087,1.96964,1.89841,1.84498,1.79156,1.72033,1.63128,1.56005,1.50663,1.43539,1.34635,1.31074,1.2217,1.16827,1.11485,1.06142,1.04362,1.02581,1.008,0.972382,0.954574,0.90115,0.865533,0.829917,0.812109,0.812109,0.776493,0.687452,0.687452,0.669644,0.651836,0.634027,0.616219,0.580603,0.544986,0.491562,0.50937,0.455946,0.384713,0.384713,0.384713,0.384713,0.331289,0.260056,0.242248,0.22444,0.206631,0.171015,0.153207,0.153207,0.117591,0.046358,-0.00706643,-0.0248746,-0.0782991,-0.0961072,-0.113915,-0.149532,-0.16734,-0.185148,-0.185148,-0.185148,-0.238573,-0.274189,-0.274189,-0.291997,-0.291997,-0.291997,-0.291997,-0.274189,-0.274189,-0.238573,-0.202956,-0.238573,-0.291997,-0.309805,-0.274189,-0.274189,-0.256381,-0.238573,-0.238573,-0.256381,-0.274189,-0.309805,-0.291997,-0.291997,-0.291997,-0.291997,-0.291997,-0.291997,-0.291997,-0.291997,-0.291997,-0.291997,-0.274189,-0.274189,-0.274189,-0.256381,-0.238573,-0.238573,-0.220764,-0.220764,-0.202956,-0.202956,-0.185148,-0.185148,-0.185148,-0.185148,-0.185148,-0.16734,-0.16734,-0.16734,-0.16734,-0.149532,-0.149532,-0.16734,-0.16734,-0.149532,-0.149532,-0.149532,-0.149532,-0.113915,-0.113915,-0.113915,-0.113915,-0.113915,-0.113915,-0.113915,-0.131724,-0.113915,-0.113915,-0.113915,-0.113915,-0.0604909,0.0107417,0.0107417,0.0107417,-0.113915,-0.113915,-0.131724,0.153207,0.31348,0.31348,0.544986,0.562795,0.562795,0.295672,-0.113915,-0.113915,-0.131724,-0.0604909,0.153207,0.420329,0.634027,0.598411,0.349097,-0.0961072,0.0997825,0.70526,0.455946,0.598411,0.580603,0.31348,0.0641662,-0.0782991,-0.0782991,-0.00706643,0.153207,0.295672,-0.0426828,-0.0426828,0.384713,0.31348,-0.0426828,0.420329,0.90115,0.918958,0.22444,0.954574,0.473754,0.0285499,0.22444,0.295672,0.0641662,0.135399,0.0997825,0.0641662,0.0997825,0.0997825,0.153207,0.135399,0.153207,0.188823,0.22444,0.206631,0.206631,0.188823,0.171015,0.402521,0.349097,0.206631,0.50937,0.634027,0.242248,0.634027,1.09704,0.883342,0.562795,0.402521,0.384713,0.331289,0.331289,0.31348,0.295672,0.31348,0.349097,0.31348,0.277864,0.242248,0.242248,0.206631,0.171015,0.153207,0.135399,0.135399,0.153207,0.171015,0.188823,0.188823,0.171015,0.188823,0.22444,0.22444,0.22444,0.384713,0.598411,0.972382,0.883342,0.544986,0.384713,0.260056,0.260056,0.260056,0.277864,0.366905,0.455946,0.723068,1.16827,1.72033,0.260056,0.260056,0.242248,0.242248,0.242248,0.242248,0.242248,0.242248
3.87511,3.87511,3.87511,3.8573,3.82169,3.78607,3.73265,3.66141,3.59018,3.51895,3.46552,3.4121,3.34087,3.28744,3.23402,3.18059,3.12717,3.07375,3.02032,2.9847,2.91347,2.9847,3.02032,3.12717,3.32306,3.4121,3.34087,3.16279,2.94909,2.66416,2.5395,2.45046,2.50388,2.68197,2.39704,2.5395,2.73539,2.5395,2.18334,2.1121,1.96964,1.68471,2.00526,2.02306,1.96964,1.89841,1.82717,1.77375,1.72033,1.63128,1.56005,1.50663,1.43539,1.36416,1.29293,1.2395,1.16827,1.11485,1.06142,1.02581,1.008,0.990191,0.972382,0.936766,0.90115,0.865533,0.847725,0.829917,0.812109,0.70526,0.580603,0.687452,0.669644,0.651836,0.634027,0.616219,0.580603,0.527178,0.50937,0.491562,0.455946,0.420329,0.420329,0.402521,0.349097,0.277864,0.260056,0.242248,0.22444,0.206631,0.171015,0.153207,0.135399,0.0997825,0.046358,-0.0248746,-0.0248746,-0.0782991,-0.0961072,-0.113915,-0.113915,-0.185148,-0.16734,-0.202956,-0.202956,-0.220764,-0.256381,-0.291997,-0.309805,-0.309805,-0.291997,-0.256381,-0.256381,-0.238573,-0.220764,-0.202956,-0.256381,-0.274189,-0.309805,-0.309805,-0.309805,-0.309805,-0.309805,-0.256381,-0.274189,-0.274189,-0.291997,-0.291997,-0.291997,-0.291997,-0.291997,-0.291997,-0.291997,-0.291997,-0.291997,-0.291997,-0.291997,-0.274189,-0.274189,-0.274189,-0.256381,-0.238573,-0.238573,-0.220764,-0.220764,-0.202956,-0.202956,-0.185148,-0.185148,-0.185148,-0.185148,-0.185148,-0.16734,-0.16734,-0.16734,-0.16734,-0.149532,-0.149532,-0.149532,-0.149532,-0.149532,-0.113915,-0.113915,-0.113915,-0.113915,-0.113915,-0.113915,-0.113915,-0.113915,-0.113915,-0.113915,-0.131724,-0.113915,-0.113915,-0.0961072,-0.0961072,-0.0782991,-0.0782991,-0.0961072,-0.113915,-0.113915,-0.0961072,-0.0782991,0.046358,0.277864,0.438138,0.527178,0.544986,0.580603,0.598411,0.0285499,0.31348,0.260056,0.188823,0.31348,0.438138,0.544986,0.473754,0.206631,-0.113915,0.0107417,0.206631,0.70526,0.723068,0.687452,0.349097,-0.0782991,-0.0782991,0.046358,0.188823,0.171015,0.0997825,-0.0426828,0.0819744,0.188823,0.117591,-0.0426828,0.22444,0.50937,0.349097,-0.00706643,0.384713,0.972382,0.277864,1.008,0.295672,0.206631,0.331289,0.0641662,0.0641662,0.0997825,0.135399,0.135399,0.135399,0.171015,0.22444,0.188823,0.135399,0.171015,0.188823,0.171015,0.295672,0.260056,0.188823,0.31348,0.331289,0.22444,0.598411,0.776493,0.580603,0.260056,0.366905,0.349097,0.331289,0.295672,0.277864,0.260056,0.277864,0.295672,0.277864,0.242248,0.242248,0.206631,0.171015,0.153207,0.153207,0.135399,0.135399,0.153207,0.171015,0.171015,0.171015,0.171015,0.188823,0.206631,0.22444,0.22444,0.349097,0.544986,0.651836,0.50937,0.331289,0.260056,0.260056,0.260056,0.277864,0.295672,0.31348,0.31348,0.402521,0.277864,0.277864,0.260056,0.260056,0.242248,0.242248,0.242248,0.242248,0.242248,0.242248
3.87511,3.87511,3.87511,3.8573,3.82169,3.78607,3.71484,3.66141,3.59018,3.51895,3.46552,3.4121,3.34087,3.28744,3.23402,3.18059,3.14498,3.16279,3.1984,3.21621,3.30525,3.50114,3.66141,3.6258,3.82169,3.75046,3.18059,3.14498,3.00251,2.73539,2.62854,2.59293,2.62854,2.68197,2.55731,2.59293,2.55731,2.41484,2.37923,2.29019,2.20115,1.91621,1.61348,1.86279,1.72033,1.80937,1.68471,1.59567,1.52444,1.56005,1.56005,1.50663,1.43539,1.34635,1.27512,1.2395,1.16827,1.11485,1.04362,0.990191,0.972382,0.990191,0.954574,0.90115,0.90115,0.865533,0.847725,0.812109,0.776493,0.687452,0.723068,0.687452,0.669644,0.651836,0.634027,0.598411,0.580603,0.544986,0.50937,0.491562,0.455946,0.402521,0.366905,0.384713,0.331289,0.260056,0.260056,0.242248,0.206631,0.188823,0.171015,0.135399,0.0997825,0.0641662,0.0285499,-0.0248746,-0.0248746,-0.0782991,-0.0961072,-0.113915,-0.131724,-0.16734,-0.202956,-0.220764,-0.220764,-0.238573,-0.274189,-0.309805,-0.327613,-0.309805,-0.291997,-0.238573,-0.256381,-0.256381,-0.238573,-0.220764,-0.238573,-0.274189,-0.309805,-0.327613,-0.309805,-0.309805,-0.309805,-0.309805,-0.309805,-0.309805,-0.309805,-0.309805,-0.309805,-0.309805,-0.291997,-0.274189,-0.274189,-0.274189,-0.291997,-0.291997,-0.291997,-0.274189,-0.274189,-0.274189,-0.256381,-0.238573,-0.238573,-0.220764,-0.220764,-0.202956,-0.202956,-0.185148,-0.185148,-0.185148,-0.185148,-0.185148,-0.16734,-0.16734,-0.149532,-0.149532,-0.131724,-0.131724,-0.113915,-0.113915,-0.113915,-0.113915,-0.113915,-0.113915,-0.113915,-0.113915,-0.113915,-0.113915,-0.113915,-0.113915,-0.113915,-0.113915,-0.113915,-0.0961072,-0.0961072,-0.113915,-0.113915,-0.113915,-0.113915,-0.131724,-0.113915,-0.0961072,-0.0426828,0.0641662,0.295672,0.349097,0.402521,0.295672,0.277864,-0.131724,-0.113915,0.598411,0.616219,0.616219,0.562795,0.580603,0.562795,0.384713,0.0107417,-0.131724,-0.149532,0.295672,0.580603,0.616219,0.740876,0.740876,0.153207,0.776493,0.491562,0.491562,0.0107417,-0.0604909,-0.0426828,-0.00706643,0.046358,-0.00706643,-0.0604909,0.153207,0.242248,0.117591,-0.0248746,0.242248,0.331289,0.0285499,0.0107417,0.135399,0.0285499,1.04362,0.260056,0.046358,0.0997825,0.0819744,0.135399,0.117591,0.277864,0.366905,0.242248,0.135399,0.188823,0.22444,0.22444,0.22444,0.206631,0.206631,0.171015,0.242248,0.242248,0.384713,0.384713,0.402521,0.277864,0.31348,0.366905,0.295672,0.260056,0.242248,0.22444,0.206631,0.206631,0.206631,0.206631,0.188823,0.171015,0.171015,0.153207,0.153207,0.135399,0.206631,0.188823,0.188823,0.188823,0.188823,0.188823,0.206631,0.242248,0.22444,0.22444,0.277864,0.402521,0.384713,0.295672,0.277864,0.260056,0.242248,0.242248,0.277864,0.295672,0.295672,0.295672,0.277864,0.31348,0.366905,0.295672,0.277864,0.260056,0.260056,0.242248,0.242248,0.242248,0.242248
3.87511,3.87511,3.87511,3.8573,3.82169,3.78607,3.71484,3.66141,3.59018,3.51895,3.46552,3.4121,3.34087,3.28744,3.23402,3.25183,3.39429,3.64361,3.73265,3.76826,3.82169,3.91073,3.82169,3.91073,3.8395,3.66141,3.18059,3.18059,3.07375,2.9847,2.9669,2.93128,2.68197,2.69977,2.62854,2.61073,2.50388,2.39704,2.37923,2.29019,2.20115,1.96964,1.91621,2.02306,1.95183,1.8806,1.82717,1.75594,1.70252,1.63128,1.39978,1.32855,1.29293,1.27512,1.18608,1.2395,1.18608,1.07923,0.954574,0.883342,0.936766,0.883342,0.812109,0.936766,0.90115,0.847725,0.829917,0.812109,0.794301,0.776493,0.723068,0.669644,0.651836,0.634027,0.634027,0.598411,0.562795,0.527178,0.50937,0.473754,0.438138,0.420329,0.366905,0.384713,0.295672,0.260056,0.277864,0.242248,0.206631,0.206631,0.171015,0.117591,0.046358,0.046358,0.0107417,-0.0248746,-0.0426828,-0.0604909,-0.0961072,-0.113915,-0.149532,-0.185148,-0.220764,-0.238573,-0.238573,-0.238573,-0.256381,-0.274189,-0.274189,-0.327613,-0.238573,-0.238573,-0.256381,-0.256381,-0.238573,-0.220764,-0.238573,-0.274189,-0.309805,-0.327613,-0.309805,-0.309805,-0.309805,-0.309805,-0.309805,-0.309805,-0.309805,-0.309805,-0.291997,-0.309805,-0.291997,-0.291997,-0.274189,-0.274189,-0.291997,-0.291997,-0.291997,-0.274189,-0.274189,-0.274189,-0.256381,-0.238573,-0.238573,-0.220764,-0.220764,-0.202956,-0.202956,-0.202956,-0.185148,-0.185148,-0.16734,-0.16734,-0.16734,-0.149532,-0.131724,-0.131724,-0.113915,-0.113915,-0.113915,-0.113915,-0.113915,-0.113915,-0.113915,-0.113915,-0.113915,-0.113915,-0.113915,-0.0604909,-0.0782991,-0.0782991,-0.0782991,-0.0961072,-0.0961072,-0.0961072,-0.0961072,-0.113915,-0.131724,-0.131724,-0.131724,-0.131724,-0.113915,-0.0782991,-0.0426828,0.0997825,0.153207,0.117591,0.0285499,0.0285499,-0.131724,-0.131724,0.0641662,0.366905,0.527178,0.634027,0.634027,0.634027,0.634027,0.366905,-0.0604909,-0.149532,-0.149532,0.117591,0.402521,0.473754,0.331289,-0.0782991,0.188823,0.491562,0.794301,0.794301,0.260056,-0.0604909,-0.0782991,-0.00706643,0.0997825,-0.00706643,-0.0782991,0.0641662,0.117591,0.0285499,-0.0426828,-0.0604909,0.0641662,0.0285499,-0.00706643,0.0641662,0.0107417,0.277864,0.31348,0.544986,0.562795,0.598411,0.0641662,0.651836,0.687452,0.70526,0.135399,0.117591,0.260056,0.384713,0.242248,0.135399,0.171015,0.188823,0.171015,0.22444,0.206631,0.22444,0.22444,0.188823,0.242248,0.260056,0.22444,0.260056,0.242248,0.22444,0.206631,0.206631,0.206631,0.206631,0.188823,0.171015,0.171015,0.171015,0.153207,0.153207,0.277864,0.206631,0.206631,0.188823,0.188823,0.188823,0.206631,0.242248,0.242248,0.242248,0.242248,0.277864,0.31348,0.260056,0.260056,0.260056,0.242248,0.242248,0.277864,0.31348,0.31348,0.31348,0.295672,0.31348,0.31348,0.331289,0.31348,0.295672,0.260056,0.22444,0.22444,0.22444,0.22444,0.22444
3.87511,3.87511,3.87511,3.8573,3.82169,3.78607,3.71484,3.66141,3.59018,3.51895,3.46552,3.4121,3.34087,3.28744,3.30525,3.42991,3.67922,3.8573,3.89292,3.92854,3.96415,3.98196,3.87511,3.76826,3.60799,3.1984,3.1984,3.21621,3.25183,3.32306,3.4121,3.23402,2.89566,2.69977,2.66416,2.59293,2.52169,2.39704,2.37923,2.29019,2.20115,2.12991,2.04087,2.02306,1.95183,1.86279,1.80937,1.75594,1.70252,1.61348,1.56005,1.50663,1.43539,1.34635,1.27512,1.2217,1.09704,1.04362,1.06142,1.02581,1.008,0.972382,0.954574,0.936766,0.90115,0.847725,0.829917,0.812109,0.794301,0.740876,0.723068,0.669644,0.669644,0.651836,0.634027,0.598411,0.544986,0.527178,0.50937,0.473754,0.438138,0.384713,0.349097,0.331289,0.277864,0.260056,0.22444,0.242248,0.135399,0.206631,0.153207,0.117591,0.0819744,0.046358,0.0107417,-0.0248746,-0.0426828,-0.0604909,-0.0961072,-0.131724,-0.149532,-0.185148,-0.202956,-0.220764,-0.256381,-0.238573,-0.238573,-0.220764,-0.238573,-0.238573,-0.327613,-0.274189,-0.274189,-0.274189,-0.274189,-0.256381,-0.256381,-0.274189,-0.309805,-0.327613,-0.309805,-0.309805,-0.309805,-0.309805,-0.309805,-0.309805,-0.309805,-0.309805,-0.291997,-0.309805,-0.291997,-0.291997,-0.274189,-0.274189,-0.291997,-0.291997,-0.291997,-0.274189,-0.274189,-0.274189,-0.256381,-0.238573,-0.238573,-0.238573,-0.220764,-0.220764,-0.202956,-0.202956,-0.185148,-0.185148,-0.16734,-0.16734,-0.149532,-0.131724,-0.131724,-0.131724,-0.131724,-0.131724,-0.131724,-0.131724,-0.131724,-0.131724,-0.131724,-0.131724,-0.131724,-0.113915,-0.0961072,-0.0782991,-0.0782991,-0.0782991,-0.0782991,-0.0961072,-0.0961072,-0.0961072,-0.0961072,-0.113915,-0.131724,-0.131724,-0.131724,-0.131724,-0.113915,-0.0961072,-0.0604909,-0.0604909,-0.0604909,-0.0782991,-0.0782991,-0.131724,-0.131724,-0.0782991,0.046358,0.402521,0.562795,0.634027,0.616219,0.616219,0.651836,0.473754,0.0819744,-0.149532,-0.0604909,0.0641662,0.31348,0.295672,0.046358,-0.0961072,0.188823,0.473754,0.740876,0.723068,0.50937,0.812109,-0.0961072,0.331289,0.366905,0.188823,-0.0782991,0.0285499,0.135399,0.046358,-0.0604909,-0.0604909,-0.0248746,-0.00706643,-0.0248746,0.0107417,0.0107417,-0.00706643,0.171015,0.171015,0.0107417,0.153207,0.046358,0.491562,0.812109,0.687452,1.27512,0.188823,0.740876,0.740876,0.171015,0.135399,0.188823,0.171015,0.171015,0.206631,0.206631,0.206631,0.188823,0.206631,0.22444,0.22444,0.242248,0.242248,0.22444,0.22444,0.206631,0.206631,0.206631,0.206631,0.188823,0.188823,0.22444,0.277864,0.562795,1.52444,0.776493,0.206631,0.883342,0.438138,0.349097,0.242248,0.22444,0.22444,0.260056,0.242248,0.260056,0.295672,0.455946,0.50937,0.260056,0.260056,0.242248,0.242248,0.260056,0.277864,0.31348,0.31348,0.295672,0.31348,0.31348,0.366905,0.331289,0.31348,0.260056,0.206631,0.188823,0.188823,0.188823,0.188823
3.87511,3.87511,3.87511,3.8573,3.82169,3.78607,3.71484,3.66141,3.59018,3.51895,3.46552,3.4121,3.34087,3.34087,3.44772,3.6258,3.78607,3.87511,3.92854,3.94635,3.96415,3.96415,3.67922,3.53676,3.44772,3.1984,3.23402,3.28744,3.35868,3.46552,3.46552,3.39429,3.02032,2.69977,2.68197,2.5395,2.39704,2.39704,2.37923,2.29019,2.20115,2.12991,2.04087,2.02306,1.95183,1.86279,1.80937,1.75594,1.70252,1.63128,1.56005,1.48882,1.41759,1.34635,1.27512,1.2217,1.15046,1.11485,1.06142,1.02581,1.008,0.972382,0.954574,0.918958,0.883342,0.847725,0.829917,0.794301,0.776493,0.758685,0.70526,0.651836,0.669644,0.634027,0.634027,0.580603,0.50937,0.527178,0.491562,0.473754,0.31348,0.295672,0.31348,0.295672,0.295672,0.295672,0.295672,0.242248,0.188823,0.188823,0.153207,0.0997825,0.0819744,0.046358,0.0285499,-0.00706643,-0.0426828,-0.0604909,-0.0961072,-0.149532,-0.16734,-0.185148,-0.185148,-0.16734,-0.185148,-0.256381,-0.220764,-0.220764,-0.256381,-0.309805,-0.36323,-0.36323,-0.36323,-0.345421,-0.327613,-0.309805,-0.309805,-0.309805,-0.327613,-0.327613,-0.309805,-0.309805,-0.309805,-0.309805,-0.309805,-0.309805,-0.309805,-0.309805,-0.291997,-0.309805,-0.291997,-0.291997,-0.274189,-0.274189,-0.274189,-0.274189,-0.274189,-0.274189,-0.274189,-0.274189,-0.256381,-0.256381,-0.256381,-0.238573,-0.220764,-0.220764,-0.202956,-0.202956,-0.185148,-0.185148,-0.16734,-0.16734,-0.149532,-0.149532,-0.149532,-0.149532,-0.149532,-0.149532,-0.149532,-0.149532,-0.149532,-0.131724,-0.113915,-0.0961072,-0.131724,-0.0604909,-0.0604909,-0.0604909,-0.0782991,-0.0782991,-0.0782991,-0.0961072,-0.0961072,-0.0961072,-0.0961072,-0.113915,-0.131724,-0.131724,-0.131724,-0.131724,-0.131724,-0.113915,-0.113915,-0.113915,-0.113915,-0.113915,-0.131724,-0.131724,-0.113915,-0.0782991,0.0997825,0.384713,0.527178,0.580603,0.562795,0.580603,0.616219,0.634027,-0.00706643,0.242248,0.260056,0.31348,0.455946,0.277864,-0.0426828,-0.113915,-0.00706643,0.188823,0.420329,0.491562,0.491562,0.331289,-0.113915,0.812109,0.544986,0.812109,-0.0961072,-0.113915,0.366905,0.22444,-0.0426828,-0.0961072,-0.0426828,-0.0248746,-0.0426828,-0.0426828,-0.0248746,-0.0248746,0.0641662,0.046358,-0.00706643,0.0641662,0.0285499,0.295672,0.0641662,0.402521,0.117591,0.171015,0.242248,0.22444,0.206631,0.527178,0.829917,0.829917,0.242248,0.22444,0.206631,0.206631,0.206631,0.206631,0.22444,0.206631,0.206631,0.188823,0.188823,0.188823,0.206631,0.206631,0.206631,0.206631,0.188823,0.260056,0.277864,0.473754,0.972382,1.38197,0.651836,0.473754,0.562795,0.473754,0.331289,0.260056,0.260056,0.260056,0.349097,0.206631,0.277864,0.295672,0.687452,0.812109,0.687452,0.277864,0.242248,0.242248,0.206631,0.260056,0.31348,0.295672,0.295672,0.331289,0.366905,0.50937,0.473754,0.295672,0.22444,0.206631,0.188823,0.188823,0.188823,0.188823
3.89292,3.89292,3.87511,3.8573,3.82169,3.78607,3.69703,3.64361,3.57237,3.50114,3.44772,3.39429,3.37648,3.44772,3.55457,3.6258,3.69703,3.69703,3.66141,3.66141,3.53676,3.09155,3.23402,3.16279,3.28744,3.1984,3.1984,3.37648,3.53676,3.4121,3.32306,3.1984,2.69977,2.69977,2.68197,2.50388,2.37923,2.37923,2.37923,2.29019,2.21895,2.12991,2.05868,2.02306,1.95183,1.86279,1.80937,1.75594,1.6669,1.59567,1.54224,1.48882,1.41759,1.34635,1.27512,1.2217,1.16827,1.09704,1.04362,1.02581,0.990191,0.972382,0.954574,0.918958,0.883342,0.847725,0.812109,0.794301,0.776493,0.758685,0.70526,0.651836,0.616219,0.580603,0.616219,0.544986,0.384713,0.491562,0.402521,0.331289,0.366905,0.420329,0.384713,0.349097,0.331289,0.31348,0.277864,0.242248,0.206631,0.171015,0.135399,0.117591,0.0819744,0.0285499,0.0107417,-0.00706643,-0.0426828,-0.0782991,-0.0961072,-0.131724,-0.16734,-0.185148,-0.185148,-0.16734,-0.256381,-0.274189,-0.256381,-0.238573,-0.256381,-0.309805,-0.36323,-0.36323,-0.381038,-0.36323,-0.36323,-0.36323,-0.36323,-0.36323,-0.345421,-0.345421,-0.327613,-0.309805,-0.309805,-0.309805,-0.309805,-0.309805,-0.309805,-0.309805,-0.291997,-0.309805,-0.291997,-0.291997,-0.274189,-0.274189,-0.274189,-0.274189,-0.274189,-0.274189,-0.274189,-0.274189,-0.256381,-0.256381,-0.256381,-0.238573,-0.220764,-0.220764,-0.202956,-0.202956,-0.185148,-0.185148,-0.16734,-0.16734,-0.16734,-0.16734,-0.16734,-0.16734,-0.16734,-0.16734,-0.16734,-0.149532,-0.113915,-0.0961072,-0.0961072,-0.0604909,-0.0604909,-0.0604909,-0.0604909,-0.0604909,-0.0782991,-0.0782991,-0.0782991,-0.0961072,-0.0961072,-0.0961072,-0.0961072,-0.113915,-0.131724,-0.113915,-0.113915,-0.113915,-0.113915,-0.113915,-0.113915,-0.131724,-0.131724,-0.149532,-0.149532,-0.131724,-0.113915,-0.0426828,0.0107417,0.117591,0.171015,0.135399,0.0997825,0.188823,0.242248,0.153207,-0.16734,0.0285499,0.651836,0.651836,0.598411,0.349097,0.0107417,-0.131724,-0.149532,-0.0426828,0.171015,0.188823,0.260056,0.242248,-0.131724,0.260056,0.31348,0.31348,0.117591,0.366905,0.865533,0.562795,0.188823,-0.0782991,0.0285499,-0.0248746,-0.0604909,-0.0426828,0.0107417,-0.0248746,0.0285499,0.0285499,-0.00706643,0.0285499,0.0285499,0.153207,0.0641662,0.188823,0.0997825,0.153207,0.153207,0.188823,0.22444,0.188823,0.384713,0.491562,0.366905,0.277864,0.242248,0.22444,0.22444,0.206631,0.22444,0.206631,0.206631,0.188823,0.188823,0.260056,0.206631,0.206631,0.206631,0.206631,0.22444,0.242248,0.277864,0.384713,0.22444,0.22444,0.366905,0.402521,0.455946,0.366905,0.277864,0.260056,0.295672,0.22444,0.669644,0.366905,0.331289,0.740876,1.2395,1.64909,1.16827,0.527178,0.22444,0.206631,0.206631,0.206631,0.260056,0.366905,0.366905,0.438138,0.598411,0.812109,0.527178,0.295672,0.206631,0.206631,0.206631,0.206631,0.206631,0.206631
3.91073,3.91073,3.89292,3.87511,3.8573,3.80388,3.73265,3.67922,3.60799,3.55457,3.48333,3.42991,3.4121,3.42991,3.39429,3.35868,3.21621,3.1984,3.12717,3.12717,3.03813,2.91347,2.82443,2.93128,3.14498,3.21621,3.05594,3.21621,3.60799,3.02032,2.80662,2.69977,2.69977,2.66416,2.52169,2.37923,2.30799,2.37923,2.36142,2.29019,2.21895,2.12991,2.04087,2.02306,1.93402,1.86279,1.80937,1.75594,1.68471,1.59567,1.54224,1.48882,1.41759,1.34635,1.25731,1.2217,1.15046,1.09704,1.04362,1.02581,0.990191,0.972382,0.936766,0.918958,0.883342,0.829917,0.812109,0.794301,0.776493,0.740876,0.687452,0.616219,0.580603,0.455946,0.544986,0.562795,0.50937,0.527178,0.455946,0.455946,0.420329,0.420329,0.384713,0.331289,0.331289,0.31348,0.277864,0.242248,0.188823,0.171015,0.135399,0.117591,0.0819744,0.0285499,0.0107417,-0.0248746,-0.0248746,-0.0782991,-0.0782991,-0.0961072,-0.113915,-0.185148,-0.185148,-0.202956,-0.256381,-0.291997,-0.291997,-0.274189,-0.274189,-0.309805,-0.345421,-0.36323,-0.381038,-0.36323,-0.36323,-0.36323,-0.36323,-0.36323,-0.36323,-0.345421,-0.327613,-0.327613,-0.327613,-0.327613,-0.309805,-0.309805,-0.309805,-0.309805,-0.291997,-0.309805,-0.291997,-0.291997,-0.274189,-0.274189,-0.274189,-0.274189,-0.274189,-0.274189,-0.274189,-0.274189,-0.256381,-0.256381,-0.256381,-0.238573,-0.220764,-0.220764,-0.202956,-0.202956,-0.185148,-0.185148,-0.16734,-0.16734,-0.149532,-0.149532,-0.149532,-0.149532,-0.149532,-0.149532,-0.131724,-0.113915,-0.0782991,-0.0604909,-0.0604909,-0.0604909,-0.0604909,-0.0604909,-0.0604909,-0.0604909,-0.0782991,-0.0782991,-0.0782991,-0.0961072,-0.0961072,-0.0961072,-0.0961072,-0.0961072,-0.0961072,-0.0961072,-0.0961072,-0.113915,-0.113915,-0.113915,-0.113915,-0.131724,-0.131724,-0.131724,-0.131724,-0.131724,-0.0961072,-0.0782991,-0.0961072,-0.131724,-0.131724,-0.149532,-0.16734,-0.16734,-0.113915,-0.113915,-0.185148,0.22444,0.455946,0.473754,0.651836,0.669644,0.171015,-0.149532,0.206631,0.242248,0.117591,-0.0248746,-0.00706643,-0.131724,-0.131724,0.0107417,0.0285499,-0.113915,-0.113915,0.188823,0.562795,0.883342,0.153207,0.420329,0.171015,0.0641662,-0.0604909,0.046358,-0.0248746,0.0819744,0.0285499,-0.00706643,-0.00706643,0.0285499,0.0285499,0.0819744,0.0641662,0.0997825,0.0997825,0.135399,0.153207,0.188823,0.188823,0.171015,0.295672,0.31348,0.206631,0.260056,0.242248,0.22444,0.22444,0.22444,0.22444,0.206631,0.776493,0.829917,0.723068,0.260056,0.22444,0.22444,0.22444,0.22444,0.242248,0.260056,0.242248,0.242248,0.277864,0.31348,0.366905,0.349097,0.277864,0.277864,0.242248,0.260056,0.260056,0.22444,0.491562,0.420329,0.651836,1.29293,1.64909,1.64909,1.2395,0.687452,0.22444,0.206631,0.206631,0.206631,0.260056,0.473754,0.616219,0.634027,0.794301,0.954574,0.580603,0.22444,0.206631,0.206631,0.188823,0.22444,0.22444,0.22444
3.92854,3.92854,3.91073,3.91073,3.89292,3.8395,3.78607,3.75046,3.69703,3.6258,3.55457,3.48333,3.4121,3.35868,3.25183,3.16279,3.07375,3.02032,2.9847,2.91347,2.84224,2.82443,2.80662,2.73539,2.66416,3.02032,2.57512,3.09155,2.45046,2.39704,2.34361,2.27238,2.71758,2.39704,2.23676,2.16553,2.20115,2.37923,2.29019,2.29019,2.21895,2.12991,2.04087,2.00526,1.93402,1.84498,1.80937,1.75594,1.68471,1.59567,1.52444,1.4532,1.39978,1.32855,1.27512,1.2217,1.15046,1.09704,1.06142,1.02581,0.990191,0.972382,0.936766,0.918958,0.865533,0.829917,0.812109,0.776493,0.758685,0.687452,0.651836,0.491562,0.634027,0.562795,0.598411,0.562795,0.527178,0.527178,0.473754,0.455946,0.438138,0.402521,0.366905,0.331289,0.31348,0.295672,0.260056,0.22444,0.171015,0.153207,0.117591,0.0997825,0.0641662,0.046358,0.0107417,-0.0248746,-0.0426828,-0.0782991,-0.113915,-0.113915,-0.149532,-0.202956,-0.185148,-0.202956,-0.256381,-0.291997,-0.309805,-0.291997,-0.291997,-0.309805,-0.345421,-0.36323,-0.381038,-0.36323,-0.36323,-0.36323,-0.36323,-0.36323,-0.36323,-0.345421,-0.345421,-0.345421,-0.345421,-0.327613,-0.309805,-0.309805,-0.309805,-0.309805,-0.291997,-0.309805,-0.291997,-0.291997,-0.274189,-0.274189,-0.274189,-0.274189,-0.274189,-0.274189,-0.274189,-0.274189,-0.256381,-0.256381,-0.256381,-0.238573,-0.220764,-0.220764,-0.202956,-0.202956,-0.185148,-0.185148,-0.16734,-0.16734,-0.149532,-0.149532,-0.149532,-0.149532,-0.131724,-0.113915,-0.113915,-0.0961072,-0.0782991,-0.0604909,-0.0604909,-0.0604909,-0.0604909,-0.0604909,-0.0604909,-0.0604909,-0.0782991,-0.0782991,-0.0782991,-0.0782991,-0.0782991,-0.0782991,-0.0782991,-0.0604909,-0.0782991,-0.0782991,-0.0961072,-0.113915,-0.113915,-0.113915,-0.113915,-0.131724,-0.131724,-0.131724,-0.113915,-0.113915,-0.0961072,-0.113915,-0.113915,-0.131724,-0.131724,-0.149532,-0.16734,-0.185148,-0.185148,-0.202956,-0.185148,0.0641662,0.188823,0.206631,0.277864,-0.149532,0.135399,0.135399,0.740876,0.366905,0.117591,-0.113915,-0.131724,-0.131724,-0.0248746,-0.0604909,-0.113915,-0.113915,-0.0248746,0.046358,-0.0782991,-0.0782991,-0.0961072,0.0819744,0.277864,0.295672,0.242248,0.242248,0.70526,0.0107417,-0.00706643,0.0285499,0.046358,0.0285499,0.0819744,0.0641662,0.117591,0.0997825,0.0997825,0.135399,0.135399,0.22444,0.188823,0.171015,0.242248,0.260056,0.206631,0.260056,0.242248,0.22444,0.22444,0.22444,0.31348,0.687452,1.48882,1.52444,0.723068,0.242248,0.22444,0.420329,0.331289,0.277864,0.260056,0.260056,0.242248,0.277864,0.295672,0.366905,0.455946,0.277864,0.260056,0.260056,0.242248,0.242248,0.22444,0.277864,0.349097,0.366905,0.438138,0.70526,0.829917,0.242248,0.562795,0.349097,0.22444,0.206631,0.206631,0.22444,0.438138,0.651836,0.260056,0.740876,0.918958,1.06142,0.527178,0.22444,0.206631,0.206631,0.295672,0.242248,0.260056,0.242248
3.92854,3.92854,3.91073,3.91073,3.89292,3.8573,3.80388,3.73265,3.67922,3.60799,3.55457,3.50114,3.42991,3.34087,3.28744,3.25183,3.23402,3.18059,3.10936,3.09155,3.09155,3.09155,3.02032,3.37648,3.8395,3.39429,3.03813,2.9847,2.84224,2.71758,2.55731,2.52169,2.5395,2.14772,2.0943,2.04087,1.96964,2.14772,2.07649,2.02306,2.05868,1.91621,1.84498,1.98745,1.89841,1.84498,1.79156,1.73813,1.6669,1.61348,1.52444,1.4532,1.39978,1.32855,1.25731,1.20389,1.13266,1.09704,1.04362,1.008,0.990191,0.954574,0.936766,0.90115,0.776493,0.847725,0.794301,0.776493,0.758685,0.740876,0.687452,0.687452,0.634027,0.598411,0.598411,0.562795,0.544986,0.50937,0.473754,0.455946,0.438138,0.402521,0.366905,0.31348,0.295672,0.277864,0.242248,0.206631,0.171015,0.135399,0.117591,0.0997825,0.046358,0.0285499,-0.00706643,-0.0426828,-0.0426828,-0.0782991,-0.113915,-0.131724,-0.16734,-0.220764,-0.220764,-0.220764,-0.256381,-0.309805,-0.327613,-0.327613,-0.327613,-0.327613,-0.345421,-0.36323,-0.381038,-0.36323,-0.36323,-0.36323,-0.36323,-0.36323,-0.36323,-0.345421,-0.345421,-0.345421,-0.345421,-0.327613,-0.327613,-0.327613,-0.327613,-0.309805,-0.309805,-0.309805,-0.291997,-0.291997,-0.274189,-0.274189,-0.274189,-0.238573,-0.274189,-0.274189,-0.274189,-0.274189,-0.256381,-0.256381,-0.256381,-0.238573,-0.220764,-0.220764,-0.202956,-0.202956,-0.185148,-0.185148,-0.16734,-0.16734,-0.16734,-0.16734,-0.16734,-0.149532,-0.131724,-0.113915,-0.113915,-0.0961072,-0.0782991,-0.0782991,-0.0782991,-0.0782991,-0.0782991,-0.0782991,-0.0782991,-0.0604909,-0.0604909,-0.0604909,-0.0604909,-0.0961072,-0.0604909,-0.0604909,-0.0604909,-0.0604909,-0.0782991,-0.0782991,-0.0961072,-0.113915,-0.113915,-0.113915,-0.113915,-0.131724,-0.113915,-0.113915,-0.0961072,-0.0961072,-0.0961072,-0.113915,-0.113915,-0.131724,-0.131724,-0.149532,-0.16734,-0.16734,-0.16734,-0.16734,-0.16734,-0.0782991,-0.0782991,-0.0604909,-0.131724,-0.131724,0.0285499,0.206631,0.277864,0.188823,0.206631,0.349097,0.829917,0.153207,-0.0782991,-0.0961072,-0.0961072,-0.0782991,-0.0426828,-0.0604909,-0.0604909,-0.0248746,-0.0248746,-0.0248746,-0.00706643,0.0107417,0.0997825,0.22444,0.0107417,0.562795,0.402521,0.046358,1.15046,0.0819744,0.438138,0.295672,0.117591,0.260056,0.153207,0.135399,0.188823,0.188823,0.188823,0.188823,0.206631,0.206631,0.206631,0.242248,0.242248,0.242248,0.22444,0.242248,0.402521,0.883342,1.29293,1.20389,0.242248,0.723068,1.56005,0.847725,0.50937,0.70526,0.455946,0.455946,0.331289,0.50937,0.438138,0.402521,0.598411,0.277864,0.260056,0.260056,0.242248,0.260056,0.277864,0.277864,0.295672,0.295672,0.277864,0.260056,0.402521,0.331289,0.242248,0.22444,0.206631,0.206631,0.22444,0.331289,0.723068,1.2217,1.75594,0.865533,1.008,1.80937,0.22444,0.206631,0.242248,0.295672,0.295672,0.260056,0.260056,0.260056
3.92854,3.92854,3.91073,3.91073,3.89292,3.8573,3.80388,3.73265,3.67922,3.60799,3.55457,3.50114,3.44772,3.37648,3.34087,3.34087,3.39429,3.44772,3.51895,3.51895,3.51895,3.51895,3.37648,3.91073,3.23402,3.32306,3.16279,3.03813,2.86005,2.62854,2.57512,2.55731,2.71758,2.43265,2.27238,2.16553,2.21895,2.39704,2.30799,2.21895,2.1121,2.12991,2.04087,1.89841,1.77375,1.68471,1.70252,1.59567,1.54224,1.48882,1.41759,1.36416,1.27512,1.20389,1.2395,1.18608,1.13266,1.04362,0.954574,1.008,0.990191,0.954574,0.936766,0.90115,0.883342,0.829917,0.794301,0.776493,0.758685,0.723068,0.687452,0.669644,0.634027,0.598411,0.598411,0.580603,0.544986,0.50937,0.455946,0.438138,0.420329,0.384713,0.349097,0.31348,0.260056,0.260056,0.22444,0.206631,0.153207,0.135399,0.135399,0.0997825,0.046358,0.0285499,-0.00706643,-0.0426828,-0.0604909,-0.0961072,-0.131724,-0.149532,-0.16734,-0.220764,-0.238573,-0.238573,-0.274189,-0.327613,-0.345421,-0.345421,-0.345421,-0.345421,-0.345421,-0.36323,-0.36323,-0.36323,-0.36323,-0.36323,-0.36323,-0.36323,-0.36323,-0.345421,-0.345421,-0.345421,-0.345421,-0.327613,-0.327613,-0.327613,-0.327613,-0.327613,-0.309805,-0.291997,-0.291997,-0.274189,-0.274189,-0.274189,-0.256381,-0.256381,-0.256381,-0.274189,-0.274189,-0.274189,-0.256381,-0.238573,-0.238573,-0.238573,-0.220764,-0.202956,-0.202956,-0.202956,-0.185148,-0.185148,-0.16734,-0.185148,-0.16734,-0.149532,-0.16734,-0.149532,-0.131724,-0.113915,-0.113915,-0.0961072,-0.0782991,-0.0782991,-0.0782991,-0.0604909,-0.0426828,-0.0426828,-0.0426828,-0.0426828,-0.0426828,-0.0426828,-0.0604909,-0.0604909,-0.0604909,-0.0604909,-0.0604909,-0.0604909,-0.0782991,-0.0782991,-0.0961072,-0.113915,-0.113915,-0.0961072,-0.0961072,-0.0961072,-0.0782991,-0.0782991,-0.0782991,-0.0961072,-0.0961072,-0.113915,-0.113915,-0.131724,-0.131724,-0.149532,-0.16734,-0.16734,-0.149532,-0.131724,-0.113915,-0.113915,-0.113915,-0.131724,-0.113915,-0.0961072,-0.0248746,-0.0782991,-0.0782991,-0.0782991,0.0997825,0.349097,0.847725,0.0997825,0.883342,0.349097,0.046358,-0.0604909,-0.0604909,-0.0604909,-0.0604909,-0.0248746,-0.0248746,-0.00706643,0.0107417,0.0285499,0.0819744,0.171015,0.0107417,0.242248,0.046358,0.188823,0.0819744,0.438138,1.20389,0.331289,1.25731,0.420329,0.135399,0.135399,0.349097,0.171015,0.171015,0.242248,0.22444,0.206631,0.206631,0.242248,0.242248,0.242248,0.22444,0.277864,0.438138,0.616219,0.527178,0.242248,0.349097,0.669644,1.18608,0.651836,0.260056,0.277864,0.384713,0.669644,1.64909,0.616219,0.295672,0.295672,0.277864,0.544986,0.758685,0.598411,0.366905,0.31348,0.31348,0.295672,0.295672,0.295672,0.277864,0.260056,0.277864,0.277864,0.260056,0.260056,0.260056,0.295672,0.295672,0.277864,0.491562,0.260056,0.260056,0.242248,0.598411,0.22444,0.242248,0.22444,0.242248,0.260056,0.260056,0.260056,0.260056,0.260056
