0.976184,1.09808,1.07212,1.02731,1.0011,1.00379,1.01879,1.00879,0.999699,1.06379,1.01456,0.924174,0.875456,0.925456,0.85879,0.814053,0.794504,0.73379,0.65879,0.714504,0.728355,0.742123,0.737361,0.655218,0.632789,0.680529,0.592123,0.648263,0.54079,0.59379,0.54953,0.53379,0.484715,0.46254,0.427123,0.484877,0.49792,0.489559,0.49879,0.464559,0.39129,0.45629,0.445827,0.483114,0.391048,0.385352,0.325006,0.300169,0.34254,0.252976,0.233032,0.175932,0.12802,0.113628,0.0900396,0.116684,0.112361,0.110575,0.10302,0.0413982,0.0893451,0.12629,0.138335,0.0754562,0.0865673,0.0867307,0.0205543,0.10254,0.0764366,0.141398,0.12129,0.16079,0.0802181,0.0824738,0.0454562,0.0976784,0.0769714,0.0937896,0.10879,0.130218,0.0778372,0.0487895,0.14129,0.0793778,0.113335,0.147678,0.12129,0.0712896,0.122678,0.116482,0.129378,0.148075,0.101097,0.103234,0.18379,0.0972511,0.140368,0.147678,0.165932,0.103234,0.124174,0.11788,0.180218,0.144504,0.15879,0.131517,0.12129,-0.128053,-0.118187,-0.207412,-0.329497,-0.405957,-0.336882,-0.1975,-0.0602612,0.0987895,0.0587896,0.0761538,0.0687895,0.0754685,0.0780653,0.0837895,0.071104,0.0587896,0.0587896,0.0589294,0.0587896,0.0587895,0.0587896,0.0587895,0.0587896,0.0587896,nan,nan,nan,nan,nan,nan,nan,nan,nan,nan,nan,nan,nan,nan,nan,nan,nan,nan,nan,nan,nan,nan,nan,nan,nan,nan,nan,nan,nan,nan,nan,nan,nan,nan,nan,nan,nan,nan,nan,nan,nan,nan,nan,nan,nan,nan,nan,nan,nan,nan,nan,nan,nan,nan,nan,nan,nan,nan,nan,nan,nan,nan,nan,nan,nan,nan,nan,nan,nan,nan,nan,nan,nan,nan,nan,nan,nan,nan,nan,nan,nan,nan,nan,nan,nan,nan,nan,nan,nan,nan,nan,nan,nan,nan,nan,nan,nan,nan,nan,nan,nan,nan,nan,nan,nan,nan,nan,nan,nan,nan,nan,nan,nan,nan,nan,nan,nan,nan,nan,nan,nan,nan,nan,nan,nan,nan,nan,nan,nan,nan,nan,nan,nan,nan,nan,nan,nan,nan,nan,nan,nan,nan,nan,nan,nan,nan,nan,nan,nan,nan,nan,nan,nan,nan,nan,nan,nan,nan,nan,nan,nan,nan,nan,nan,nan,nan,nan,nan
0.877591,0.642123,1.11379,1.04667,1.05879,1.09408,1.00566,1.00879,0.979244,0.981012,1.03187,0.90879,0.974579,0.879244,0.882319,0.750456,0.83379,0.73129,0.74629,0.64629,0.75879,0.674007,0.75254,0.73379,0.70379,0.72379,0.638419,0.687123,0.62008,0.59379,0.56741,0.549699,0.48879,0.504943,0.44379,0.446885,0.455086,0.511062,0.475456,0.48379,0.455456,0.350456,0.382599,0.437123,0.364504,0.415686,0.35879,0.256616,0.266365,0.22129,0.189053,0.229028,0.205564,0.0699007,0.0890926,0.0865673,0.137636,0.0791599,0.10279,0.11879,0.0827026,0.0746986,0.0894347,0.11879,0.10629,0.10254,0.0903685,0.0629562,0.087361,0.115608,0.0246986,0.0935722,0.127837,0.172426,0.126971,0.087361,0.125456,0.0956316,0.110963,0.0827026,0.0862896,0.12629,0.114053,0.0671229,0.0521229,0.0951532,0.0695038,0.137361,0.0987895,0.0629562,0.115932,0.0744145,0.100456,0.15879,0.0780203,0.0837895,0.0987895,0.13379,0.0837896,0.0976784,0.17129,0.11788,0.0837895,0.0516467,0.151647,0.12129,0.14629,-0.117401,-0.0998197,-0.173738,-0.27408,-0.379477,-0.269526,-0.101298,0.00984939,0.087361,0.073668,0.071869,0.0712896,0.0714943,0.0760485,0.0837895,0.0704505,0.0587896,0.0603661,0.058938,0.0587896,0.0587895,0.0587896,0.0587896,0.0587895,0.0587896,nan,nan,nan,nan,nan,nan,nan,nan,nan,nan,nan,nan,nan,nan,nan,nan,nan,nan,nan,nan,nan,nan,nan,nan,nan,nan,nan,nan,nan,nan,nan,nan,nan,nan,nan,nan,nan,nan,nan,nan,nan,nan,nan,nan,nan,nan,nan,nan,nan,nan,nan,nan,nan,nan,nan,nan,nan,nan,nan,nan,nan,nan,nan,nan,nan,nan,nan,nan,nan,nan,nan,nan,nan,nan,nan,nan,nan,nan,nan,nan,nan,nan,nan,nan,nan,nan,nan,nan,nan,nan,nan,nan,nan,nan,nan,nan,nan,nan,nan,nan,nan,nan,nan,nan,nan,nan,nan,nan,nan,nan,nan,nan,nan,nan,nan,nan,nan,nan,nan,nan,nan,nan,nan,nan,nan,nan,nan,nan,nan,nan,nan,nan,nan,nan,nan,nan,nan,nan,nan,nan,nan,nan,nan,nan,nan,nan,nan,nan,nan,nan,nan,nan,nan,nan,nan,nan,nan,nan,nan,nan,nan,nan,nan,nan,nan,nan,nan,nan
0.83319,0.15879,0.77129,1.03066,0.925456,1.01761,0.979378,0.939345,0.960873,0.96504,0.95879,0.91379,0.80379,0.93379,0.95629,0.934877,0.87629,0.802123,0.729842,0.746885,0.704623,0.767123,0.74004,0.725456,0.95879,0.64279,0.675456,0.60879,0.612493,0.586567,0.58679,0.555564,0.590608,0.549067,0.482319,0.462238,0.422852,0.362123,0.436062,0.38379,0.426097,0.452123,0.45679,0.33879,0.273306,0.295827,0.33279,0.360641,0.301472,0.25879,0.172678,0.149415,0.16379,0.165932,0.110873,0.0734954,0.0414818,0.0794792,0.12279,0.110713,0.0982632,0.0476784,0.0851053,0.063335,0.0870504,0.063335,0.0730752,0.0879562,0.0337895,0.0605753,0.0783548,0.09792,0.0825991,0.0400395,0.0744146,0.126971,0.10879,0.0970248,0.0693159,0.0674852,0.0775395,0.0306645,0.0430001,0.0470248,0.112123,0.111915,0.0393451,0.0626357,0.0440837,0.0510972,0.09792,0.104244,0.0837896,0.0487895,0.0451532,0.131517,0.0887896,0.0643451,0.0434049,0.10879,0.0937895,0.0906077,0.16879,0.14629,0.0802181,0.0787895,0.12879,-0.146766,-0.116977,-0.181597,-0.247009,-0.326591,-0.160548,-0.0132352,0.0506981,0.0921229,0.0743795,0.0692289,0.0587896,0.0687381,0.0739411,0.0837895,0.0695718,0.0587896,0.0603382,0.0589404,0.0587896,0.0587896,0.0587896,0.0587896,0.0587895,0.0587896,nan,nan,nan,nan,nan,nan,nan,nan,nan,nan,nan,nan,nan,nan,nan,nan,nan,nan,nan,nan,nan,nan,nan,nan,nan,nan,nan,nan,nan,nan,nan,nan,nan,nan,nan,nan,nan,nan,nan,nan,nan,nan,nan,nan,nan,nan,nan,nan,nan,nan,nan,nan,nan,nan,nan,nan,nan,nan,nan,nan,nan,nan,nan,nan,nan,nan,nan,nan,nan,nan,nan,nan,nan,nan,nan,nan,nan,nan,nan,nan,nan,nan,nan,nan,nan,nan,nan,nan,nan,nan,nan,nan,nan,nan,nan,nan,nan,nan,nan,nan,nan,nan,nan,nan,nan,nan,nan,nan,nan,nan,nan,nan,nan,nan,nan,nan,nan,nan,nan,nan,nan,nan,nan,nan,nan,nan,nan,nan,nan,nan,nan,nan,nan,nan,nan,nan,nan,nan,nan,nan,nan,nan,nan,nan,nan,nan,nan,nan,nan,nan,nan,nan,nan,nan,nan,nan,nan,nan,nan,nan,nan,nan,nan,nan,nan,nan,nan,nan
1.00879,0.895533,0.921592,0.969368,0.905456,1.05254,0.950456,1.02644,0.915039,0.938335,0.977211,0.967123,0.95879,0.65879,0.72754,0.882864,0.846668,0.863335,0.863335,0.773789,0.767123,0.748373,0.654943,0.693572,0.74879,0.619901,0.549266,0.64129,0.565686,0.612844,0.565932,0.640789,0.453951,0.520911,0.50679,0.474307,0.418165,0.381517,0.485713,0.398445,0.402729,0.366197,0.285873,0.35679,0.387361,0.30879,0.287822,0.332123,0.336731,0.321693,0.281706,0.176893,0.116107,0.043638,0.117718,0.104028,0.124919,0.0974259,0.0860623,0.0451532,0.0542441,0.0656077,0.143572,0.0860623,0.038335,0.0413982,0.0537895,0.0358729,0.150895,0.11879,0.0802181,0.087361,0.0357126,0.106517,0.0662895,0.0683134,0.10879,0.0654562,0.0306645,0.104028,0.0529072,0.0587895,0.0824738,0.028234,0.0687895,0.115932,0.0510972,0.0945038,0.0882013,0.00878955,0.0587895,0.0269714,0.0254562,0.0293778,0.115932,0.0895588,0.0818665,0.0421229,0.147678,0.0150396,0.0287895,0.0254562,0.0387895,0.0302181,0.0587895,0.087361,-0.0287105,-0.143384,-0.36621,-0.210782,-0.268006,-0.371119,-0.257228,-0.0847749,0.0100804,0.0921229,0.0587896,0.0666939,0.0587896,0.0655896,0.0703389,0.0837895,0.0675838,0.0587896,0.0600534,0.0589147,0.0587896,0.0587896,0.0587896,0.0587895,0.0587896,0.0587896,nan,nan,nan,nan,nan,nan,nan,nan,nan,nan,nan,nan,nan,nan,nan,nan,nan,nan,nan,nan,nan,nan,nan,nan,nan,nan,nan,nan,nan,nan,nan,nan,nan,nan,nan,nan,nan,nan,nan,nan,nan,nan,nan,nan,nan,nan,nan,nan,nan,nan,nan,nan,nan,nan,nan,nan,nan,nan,nan,nan,nan,nan,nan,nan,nan,nan,nan,nan,nan,nan,nan,nan,nan,nan,nan,nan,nan,nan,nan,nan,nan,nan,nan,nan,nan,nan,nan,nan,nan,nan,nan,nan,nan,nan,nan,nan,nan,nan,nan,nan,nan,nan,nan,nan,nan,nan,nan,nan,nan,nan,nan,nan,nan,nan,nan,nan,nan,nan,nan,nan,nan,nan,nan,nan,nan,nan,nan,nan,nan,nan,nan,nan,nan,nan,nan,nan,nan,nan,nan,nan,nan,nan,nan,nan,nan,nan,nan,nan,nan,nan,nan,nan,nan,nan,nan,nan,nan,nan,nan,nan,nan,nan,nan,nan,nan,nan,nan,nan
1.05879,1.05879,0.996962,1.01581,1.05879,1.15879,0.98629,0.97129,0.90879,0.956012,0.982599,0.95879,0.95879,0.95879,0.817123,0.839742,0.810403,0.864195,0.812493,0.81504,0.72379,0.680218,0.824007,0.71879,0.73379,0.767123,0.687361,0.62754,0.63379,0.60254,0.519046,0.492661,0.523373,0.502729,0.491548,0.495456,0.42279,0.467123,0.55879,0.360402,0.394901,0.337636,0.382599,0.361421,0.342123,0.386567,0.294206,0.252033,0.262199,0.272619,0.240608,0.237361,0.164742,0.0572271,0.0854562,0.0645588,0.0680488,0.12379,0.0825991,0.0754562,0.0637895,0.0358729,0.0825991,0.0879562,0.0903685,0.0854562,-0.00274891,0.0882013,-0.00871046,0.0699007,0.0659324,0.0778372,0.0674852,0.0827026,0.0254562,0.0397419,0.0462895,0.0387895,0.0587895,0.114053,0.0617307,0.0272106,0.0810118,0.0119145,0.0397419,0.0482632,0.0159324,0.0178805,0.049966,-0.0300993,0.0587895,0.0137895,0.0587895,0.0431645,-0.0139377,0.0164819,0.0254562,-0.0197819,0.00045621,0.0445038,0.0837895,0.0699007,-0.0162105,-0.0245438,0.00164669,0.0254562,0.0337895,-0.144914,-0.19121,-0.23298,-0.300759,-0.445642,-0.396616,-0.228867,-0.0849261,0.0837895,0.0587896,0.0608464,0.0587896,0.0617889,0.0654122,0.0687896,0.0646265,0.0587896,0.0587896,0.0588629,0.0587897,0.0587896,0.0587896,0.0587895,0.0587896,0.0587896,nan,nan,nan,nan,nan,nan,nan,nan,nan,nan,nan,nan,nan,nan,nan,nan,nan,nan,nan,nan,nan,nan,nan,nan,nan,nan,nan,nan,nan,nan,nan,nan,nan,nan,nan,nan,nan,nan,nan,nan,nan,nan,nan,nan,nan,nan,nan,nan,nan,nan,nan,nan,nan,nan,nan,nan,nan,nan,nan,nan,nan,nan,nan,nan,nan,nan,nan,nan,nan,nan,nan,nan,nan,nan,nan,nan,nan,nan,nan,nan,nan,nan,nan,nan,nan,nan,nan,nan,nan,nan,nan,nan,nan,nan,nan,nan,nan,nan,nan,nan,nan,nan,nan,nan,nan,nan,nan,nan,nan,nan,nan,nan,nan,nan,nan,nan,nan,nan,nan,nan,nan,nan,nan,nan,nan,nan,nan,nan,nan,nan,nan,nan,nan,nan,nan,nan,nan,nan,nan,nan,nan,nan,nan,nan,nan,nan,nan,nan,nan,nan,nan,nan,nan,nan,nan,nan,nan,nan,nan,nan,nan,nan,nan,nan,nan,nan,nan,nan
1.05879,1.05879,1.05879,1.05887,1.05732,1.05879,1.09212,1.10424,1.01593,1.00546,0.800456,0.932123,0.930665,0.941142,0.903526,0.87754,0.790932,0.767123,0.808789,0.742718,0.77129,0.78379,0.686376,0.75379,0.718313,0.751971,0.65879,0.649266,0.626647,0.569659,0.550456,0.586789,0.564789,0.39879,0.412448,0.461567,0.45079,0.450169,0.445632,0.418405,0.415932,0.354102,0.344727,0.298075,0.345746,0.342123,0.383789,0.284926,0.229842,0.145632,0.18504,0.184504,0.189345,0.187956,0.0355753,0.0712895,0.0410476,0.0367895,0.071833,0.0787895,0.13526,0.0516467,0.11504,0.0504562,0.0266467,0.0895588,-0.0269247,0.0951532,0.0994145,0.0428805,-0.00232157,0.0587895,0.0272106,0.0337895,0.00212288,0.0587895,0.0696591,0.0119145,0.0377369,0.0412895,0.0199006,0.0440837,0.0264366,0.070328,0.0264366,0.0159324,-0.012639,0.012361,0.0413982,-0.0224605,0.0646719,0.0126357,-0.0321195,0.012361,-0.0120438,0.063335,0.0195038,0.0150395,-0.0197819,-0.0724605,0.0254562,0.00878955,-0.0599605,-0.0287104,0.0337895,0.00878955,-0.0269247,-0.135441,-0.432877,-0.242774,-0.330906,-0.48994,-0.467372,-0.54121,-0.187092,0.0921229,0.0787896,0.0474952,0.0587896,0.0554374,0.0590314,0.0587896,0.06118,0.0599716,0.0587896,0.0587955,0.0587895,0.0587896,0.0587896,0.0587896,0.0587896,0.0587896,nan,nan,nan,nan,nan,nan,nan,nan,nan,nan,nan,nan,nan,nan,nan,nan,nan,nan,nan,nan,nan,nan,nan,nan,nan,nan,nan,nan,nan,nan,nan,nan,nan,nan,nan,nan,nan,nan,nan,nan,nan,nan,nan,nan,nan,nan,nan,nan,nan,nan,nan,nan,nan,nan,nan,nan,nan,nan,nan,nan,nan,nan,nan,nan,nan,nan,nan,nan,nan,nan,nan,nan,nan,nan,nan,nan,nan,nan,nan,nan,nan,nan,nan,nan,nan,nan,nan,nan,nan,nan,nan,nan,nan,nan,nan,nan,nan,nan,nan,nan,nan,nan,nan,nan,nan,nan,nan,nan,nan,nan,nan,nan,nan,nan,nan,nan,nan,nan,nan,nan,nan,nan,nan,nan,nan,nan,nan,nan,nan,nan,nan,nan,nan,nan,nan,nan,nan,nan,nan,nan,nan,nan,nan,nan,nan,nan,nan,nan,nan,nan,nan,nan,nan,nan,nan,nan,nan,nan,nan,nan,nan,nan,nan,nan,nan,nan,nan,nan
1.06334,1.05879,1.13879,1.05879,1.05879,1.05879,1.05879,1.05494,1.04768,1.02546,1.00129,0.95879,1.00879,0.95129,0.86629,0.844206,0.773075,0.878789,0.683789,0.68129,0.740932,0.744345,0.804623,0.695826,0.728355,0.656012,0.606616,0.612956,0.592718,0.55254,0.567485,0.574919,0.522852,0.524415,0.49479,0.43079,0.45879,0.40879,0.42906,0.39933,0.453617,0.416197,0.406409,0.369316,0.355341,0.271947,0.223906,0.215932,0.302338,0.28079,0.201437,0.161249,0.0945038,0.110575,0.112956,0.179842,0.120328,0.0413982,0.0407896,0.0266467,0.0233729,0.0837895,0.0112896,0.0111705,0.0512896,0.0818665,0.0298422,0.00424409,0.0587895,0.0793778,0.0244146,0.0428805,0.0379562,0.0483729,-0.050034,0.0325991,0.0275395,0.0562896,0.0287895,0.088335,0.0193159,0.0449007,0.0166843,0.0230753,0.012361,0.0662895,0.0521229,-0.00192473,0.0272106,-0.10371,0.0312895,-0.0219797,-0.0373643,0.0280203,0.00878955,0.0195038,-0.0219797,-0.0554962,-0.0203771,-0.0224604,-0.00371045,0.0275396,0.00253955,-0.062639,0.00878955,0.0199007,0.0302181,-0.14121,-0.36621,-0.236536,-0.338796,-0.501452,-0.497451,-0.59121,-0.274544,0.00878955,0.0754562,0.0291339,0.0587896,0.0587896,0.0505372,0.0587896,0.0564525,0.0572439,0.0587896,0.0582528,0.0586604,0.0587896,0.0587896,0.0587896,0.0587896,0.0587896,nan,nan,nan,nan,nan,nan,nan,nan,nan,nan,nan,nan,nan,nan,nan,nan,nan,nan,nan,nan,nan,nan,nan,nan,nan,nan,nan,nan,nan,nan,nan,nan,nan,nan,nan,nan,nan,nan,nan,nan,nan,nan,nan,nan,nan,nan,nan,nan,nan,nan,nan,nan,nan,nan,nan,nan,nan,nan,nan,nan,nan,nan,nan,nan,nan,nan,nan,nan,nan,nan,nan,nan,nan,nan,nan,nan,nan,nan,nan,nan,nan,nan,nan,nan,nan,nan,nan,nan,nan,nan,nan,nan,nan,nan,nan,nan,nan,nan,nan,nan,nan,nan,nan,nan,nan,nan,nan,nan,nan,nan,nan,nan,nan,nan,nan,nan,nan,nan,nan,nan,nan,nan,nan,nan,nan,nan,nan,nan,nan,nan,nan,nan,nan,nan,nan,nan,nan,nan,nan,nan,nan,nan,nan,nan,nan,nan,nan,nan,nan,nan,nan,nan,nan,nan,nan,nan,nan,nan,nan,nan,nan,nan,nan,nan,nan,nan,nan,nan
1.09879,1.10254,1.08571,1.07379,1.07379,1.05879,1.05879,1.20879,1.00879,0.969084,1.03546,0.942881,0.945632,0.94479,0.866482,0.904442,0.86504,0.85879,0.85879,0.854623,0.763552,0.67754,0.725456,0.686567,0.627361,0.592123,0.719901,0.553234,0.58879,0.65379,0.519206,0.593165,0.557004,0.581706,0.568467,0.571833,0.494996,0.492123,0.45879,0.48498,0.335817,0.327657,0.34933,0.338335,0.374174,0.379943,0.252338,0.35079,0.234431,0.24379,0.176437,0.22129,0.154244,0.0460236,0.047852,0.0817062,0.0294792,0.10879,0.100895,0.105848,0.0440837,0.0167895,0.0661969,0.0606414,0.0016467,0.0777551,0.0278372,0.0205543,-0.00297516,0.038335,0.00352639,0.0635514,0.0445038,0.0824738,0.0272106,0.0224259,0.0347895,-0.0262104,-0.0235634,0.00253954,0.0370504,-0.00121045,0.0778372,-0.00274891,0.0154562,0.0302181,0.0421229,0.0049434,0.0154562,0.00878955,0.0219474,0.00878955,-0.0262105,0.0351053,-0.0821195,-0.0593923,-0.000585451,-0.0356549,-0.0189882,0.00109724,-0.0219797,-0.0134327,0.00323399,0.0150396,-0.00787712,0.00424409,-0.0245438,-0.11621,-0.226925,-0.217269,-0.323888,-0.491353,-0.607877,-0.59121,-0.59121,-0.143915,0.0337895,-0.0412105,0.0587896,0.0587896,0.0405532,0.0587896,0.0587896,0.0512544,0.0587896,0.0552221,0.0573074,0.0587896,0.0587296,0.0587929,0.0587896,0.0588731,0.0642064,nan,nan,nan,nan,nan,nan,nan,nan,nan,nan,nan,nan,nan,nan,nan,nan,nan,nan,nan,nan,nan,nan,nan,nan,nan,nan,nan,nan,nan,nan,nan,0.25948,0.284142,0.30879,0.308848,0.30879,0.30879,nan,0.30879,0.30879,0.30879,0.30879,0.30879,nan,nan,nan,nan,nan,nan,nan,nan,nan,nan,nan,nan,nan,nan,nan,nan,nan,nan,nan,nan,nan,nan,nan,nan,nan,nan,nan,nan,nan,nan,nan,nan,nan,nan,nan,nan,nan,nan,nan,nan,nan,nan,nan,nan,nan,nan,nan,nan,nan,nan,nan,nan,nan,nan,nan,nan,nan,nan,nan,nan,nan,nan,nan,nan,nan,nan,nan,nan,nan,nan,nan,nan,nan,nan,nan,nan,nan,nan,nan,nan,nan,nan,nan,nan,nan,nan,nan,nan,nan,nan,nan,nan,nan,nan,nan,nan,nan,nan,nan,nan,nan,nan,nan,nan,nan,nan,nan,nan,nan,nan,nan,nan,nan,nan,nan,nan,nan,nan,nan,nan,nan,nan,nan,nan
1.23379,1.20165,1.12015,1.12629,1.06379,1.05879,1.05879,1.04212,1.19629,0.95879,0.964147,0.904943,0.882703,0.814053,0.882474,0.922123,0.89079,0.853526,0.874174,0.85879,0.806409,0.799966,0.739742,0.669727,0.649415,0.677308,0.60302,0.593272,0.573306,0.511421,0.603234,0.535456,0.471752,0.492123,0.500456,0.476971,0.387636,0.39279,0.423075,0.37379,0.379244,0.347251,0.32754,0.280529,0.257177,0.34629,0.284465,0.331517,0.28379,0.26079,0.24379,0.193405,0.130883,0.11279,0.0937895,0.0306645,0.0346516,0.0287895,-0.0102581,0.0462895,0.0722511,0.0754562,0.0712895,0.0687895,0.0310118,0.0345471,0.00566455,0.0360623,0.00640859,0.0379562,0.03498,0.0696591,-0.00659506,-0.00509934,-0.00436835,0.0219474,0.0992657,0.0212895,0.00444172,0.0337895,0.00615797,-0.00860175,0.0212895,-0.0840676,0.00651682,0.0150395,0.003234,-0.0178771,0.00601177,-0.0370438,0.024579,0.0029072,-0.0953771,-3.39807e-05,-0.0503014,-0.036665,0.00323399,-0.0620438,-0.0373643,0.00878955,-0.0503014,0.00424409,0.000456216,-0.00232156,-0.0112104,-0.00939227,0.0269714,-0.108778,-0.23121,-0.19121,-0.302488,-0.473663,-0.476264,-0.58121,-0.255496,-0.0412105,0.0143451,0.0587896,-0.0412105,0.0275395,0.00878955,0.036614,0.0587896,0.0425951,0.0587896,0.0484036,0.0531779,0.0587896,0.0586657,0.0595362,0.061306,0.0752561,0.176148,0.265055,0.268288,0.268951,nan,nan,nan,nan,nan,nan,nan,nan,nan,nan,nan,nan,nan,nan,nan,nan,nan,nan,nan,nan,nan,nan,nan,nan,nan,nan,nan,nan,0.272359,0.291582,0.307543,0.309773,0.309624,0.309184,0.308828,0.308828,0.30879,0.30879,0.30879,0.30879,0.30879,0.30879,nan,nan,nan,nan,nan,nan,nan,nan,nan,nan,nan,nan,nan,nan,nan,nan,nan,nan,nan,nan,nan,nan,nan,nan,nan,nan,nan,nan,nan,nan,nan,nan,nan,nan,nan,nan,nan,nan,nan,nan,nan,nan,nan,nan,nan,nan,nan,nan,nan,nan,nan,nan,nan,nan,nan,nan,nan,nan,nan,nan,nan,nan,nan,nan,nan,nan,nan,nan,nan,nan,nan,nan,nan,nan,nan,nan,nan,nan,nan,nan,nan,nan,nan,nan,nan,nan,nan,nan,nan,nan,nan,nan,nan,nan,nan,nan,nan,nan,nan,nan,nan,nan,nan,nan,nan,nan,nan,nan,nan,nan,nan,nan,nan,nan,nan,nan,nan,nan,nan,nan,nan,nan
1.11134,1.05046,1.10585,1.02431,1.01712,1.02441,1.04879,1.03691,1.00879,0.676647,0.940608,0.973075,0.98379,0.891142,0.881012,0.880218,0.845746,0.79879,0.815932,0.737737,0.766684,0.798373,0.765608,0.79479,0.775456,0.64792,0.636062,0.573373,0.610352,0.531203,0.505665,0.51879,0.474307,0.455086,0.447361,0.389559,0.454442,0.39679,0.400456,0.404028,0.354623,0.32008,0.331517,0.331012,0.34792,0.311647,0.23137,0.24004,0.230665,0.228432,0.201893,0.241048,0.17879,0.116142,0.0305287,0.0837895,0.0278372,0.0601784,0.00545622,0.0414819,-0.00371045,-0.0139377,0.0346516,-0.00311522,-0.00787712,0.0317062,0.0480753,0.0397419,-0.00509935,0.0562895,0.0328636,0.0360623,0.0456317,0.013335,-0.0233533,0.00164669,0.00878954,0.00628955,0.0298422,0.0140527,0.00424409,0.00878955,0.00878955,-0.00297515,-0.00621045,0.0064086,-0.0412105,-0.00121045,0.00878955,-0.0478771,-0.021766,0.00566455,-0.0287105,0.0146719,-0.00591633,-0.0412105,0.0111705,-0.0275741,-0.0181335,-0.0112104,-0.0328771,0.0212895,0.0121229,-0.0162105,0.0049434,-0.0269247,0.0150396,-0.145862,-0.129065,-0.176129,-0.287687,-0.458824,-0.443187,-0.626925,-0.0697819,-0.00371045,0.0302181,0.00878955,-0.00371045,0.0421229,0.0280166,0.00878955,0.0421229,0.00878955,0.0389315,0.0587896,0.0504803,0.0574997,0.0587896,0.0666096,0.0779152,0.119893,0.207297,0.258751,0.269299,0.272696,0.27966,nan,nan,nan,nan,nan,nan,nan,nan,nan,nan,nan,nan,nan,nan,nan,nan,nan,nan,nan,nan,nan,nan,nan,nan,nan,nan,0.278509,0.285516,0.298764,0.308905,0.311537,0.311624,0.311338,0.310947,0.310144,0.309292,0.308883,0.30879,0.30879,0.30879,0.30879,nan,nan,nan,nan,nan,nan,nan,nan,nan,nan,nan,nan,nan,nan,nan,nan,nan,nan,nan,nan,nan,nan,nan,nan,nan,nan,nan,nan,nan,nan,nan,nan,nan,nan,nan,nan,nan,nan,nan,nan,nan,nan,nan,nan,nan,nan,nan,nan,nan,nan,nan,nan,nan,nan,nan,nan,nan,nan,nan,nan,nan,nan,nan,nan,nan,nan,nan,nan,nan,nan,nan,nan,nan,nan,nan,nan,nan,nan,nan,nan,nan,nan,nan,nan,nan,nan,nan,nan,nan,nan,nan,nan,nan,nan,nan,nan,nan,nan,nan,nan,nan,nan,nan,nan,nan,nan,nan,nan,nan,nan,nan,nan,nan,nan,nan,nan,nan,nan,nan,nan,nan,nan
1.10879,1.10879,1.10879,1.02546,0.987737,0.910072,0.962493,0.961289,0.997678,0.88379,0.743165,0.873604,0.87279,0.930218,0.756706,0.850456,0.790608,0.871289,0.80379,0.75879,0.756158,0.722251,0.686062,0.687361,0.694504,0.761914,0.732928,0.747426,0.686376,0.662956,0.579757,0.571833,0.501845,0.420952,0.434431,0.481517,0.374966,0.380218,0.360713,0.427755,0.375456,0.298445,0.317123,0.30129,0.265932,0.297251,0.274067,0.22008,0.235713,0.224699,0.206706,0.19004,0.129028,0.0766467,0.100456,-0.00082584,0.0807896,0.0921229,0.0783548,0.0278372,0.0435722,0.00462288,0.037361,0.00878954,-0.00162712,0.0254562,0.0201532,0.00661564,0.00878954,0.0504562,0.0107126,0.00878955,-0.00208002,0.0327895,-0.0178771,0.00601177,0.0445038,9.38959e-05,-0.00787712,-0.00371045,-0.00509934,-0.0578771,0.0327896,0.0143451,-0.0187105,0.00678955,0.0193159,-0.0237105,-0.0104412,-0.0447819,-0.00787712,0.0159324,-0.00311521,-0.0412105,-0.00371045,-0.0162104,0.0114211,-0.0162105,-0.0139377,0.0254562,-0.0112105,-0.00996045,0.0244145,-0.00787712,-0.0104412,0.0171229,-0.00454379,-0.135655,-0.125112,-0.169721,-0.267068,-0.426625,-0.413985,-0.56621,-0.195756,0.0159324,0.0379562,0.0315168,0.00878955,0.0337895,0.0275395,0.00878955,0.0445038,0.0337896,0.00878955,0.0287896,0.0595243,0.0690861,0.0587896,0.0872214,0.109551,0.158317,0.220244,0.257582,0.270161,0.27443,0.278963,0.282124,nan,nan,nan,nan,nan,nan,nan,nan,nan,nan,nan,nan,nan,nan,nan,nan,nan,nan,nan,nan,nan,nan,nan,nan,0.284641,0.288306,0.295319,0.305162,0.312347,0.314842,0.315358,0.315542,0.315094,0.313221,0.310934,0.309481,0.308903,0.308792,0.30879,0.30879,0.30879,nan,nan,nan,nan,nan,nan,nan,nan,nan,nan,nan,nan,nan,nan,nan,nan,nan,nan,nan,nan,nan,nan,nan,nan,nan,nan,nan,nan,nan,nan,nan,nan,nan,nan,nan,nan,nan,nan,nan,nan,nan,nan,nan,nan,nan,nan,nan,nan,nan,nan,nan,nan,nan,nan,nan,nan,nan,nan,nan,nan,nan,nan,nan,nan,nan,nan,nan,nan,nan,nan,nan,nan,nan,nan,nan,nan,nan,nan,nan,nan,nan,nan,nan,nan,nan,nan,nan,nan,nan,nan,nan,nan,nan,nan,nan,nan,nan,nan,nan,nan,nan,nan,nan,nan,nan,nan,nan,nan,nan,nan,nan,nan,nan,nan,nan,nan,nan,nan,nan,nan,nan
1.06043,0.992123,1.05291,1.02417,1.08379,1.05652,1.03022,0.98379,0.95879,0.976647,0.903234,0.712636,0.863335,0.810514,0.630218,0.767613,0.739093,0.64679,0.738789,0.840608,0.795456,0.80879,0.70879,0.75879,0.751647,0.799861,0.74629,0.62754,0.632319,0.523941,0.558789,0.639742,0.602268,0.536731,0.475456,0.454442,0.441048,0.355665,0.327123,0.310963,0.30879,0.305759,0.290608,0.293,0.311915,0.260873,0.339345,0.236567,0.24679,0.244084,0.18079,0.100725,0.12779,0.118249,0.039824,0.106158,0.0122378,0.0587895,0.00661564,0.0196591,0.0504562,-0.00591633,0.0415482,0.053234,0.0712895,0.0535264,0.0462895,0.0108729,0.00878955,0.000456212,0.0237895,0.0150396,0.013335,0.0337896,0.0146719,-0.0235634,0.0171229,0.00878954,0.00226782,0.012361,-0.00311521,-0.00621045,0.0266467,-0.0137105,-0.0527489,0.00323399,-0.00311522,-0.00311521,0.0212895,0.00378955,-0.00454378,0.00278955,-0.0232105,0.0121229,0.00878955,-0.0162104,0.00878955,0.0412895,-0.0112104,0.00615797,0.00352639,-0.00871045,0.00584837,0.0121229,0.0230753,0.0117307,0.0117307,-0.184689,-0.121421,-0.155262,-0.221548,-0.361283,-0.392614,-0.59121,-0.257877,0.12129,0.111062,0.0421229,0.0337895,0.0230753,0.0360623,0.0387896,0.0254562,0.0287896,0.0337895,0.0254562,0.037361,0.0587896,0.0587896,0.0587896,0.144575,0.185811,0.229533,0.257809,0.269429,0.273381,0.276281,0.277925,nan,nan,nan,nan,nan,nan,nan,nan,nan,nan,nan,nan,nan,nan,nan,nan,nan,nan,nan,0.20879,nan,0.25879,nan,nan,0.291609,0.25879,0.303002,0.311044,0.316885,0.30879,0.320531,0.32122,0.320701,0.31791,0.314037,0.30879,0.30879,0.309055,0.308906,0.308805,0.30879,nan,nan,nan,nan,nan,nan,nan,nan,nan,nan,nan,nan,nan,nan,nan,nan,nan,nan,nan,nan,nan,nan,nan,nan,nan,nan,nan,nan,nan,nan,nan,nan,nan,nan,nan,nan,nan,nan,nan,nan,nan,nan,nan,nan,nan,nan,nan,nan,nan,nan,nan,nan,nan,nan,nan,nan,nan,nan,nan,nan,nan,nan,nan,nan,nan,nan,nan,nan,nan,nan,nan,nan,nan,nan,nan,nan,nan,nan,nan,nan,nan,nan,nan,nan,nan,nan,nan,nan,nan,nan,nan,nan,nan,nan,nan,nan,nan,nan,nan,nan,nan,nan,nan,nan,nan,nan,nan,nan,nan,nan,nan,nan,nan,nan,nan,nan,nan,nan,nan,nan,nan
1.04663,1.05879,0.925456,1.00652,0.975456,0.973495,1.02212,1.00879,0.981012,0.992123,0.93379,0.913335,0.929842,0.95629,0.93705,0.834652,0.780456,0.72879,0.824415,0.779378,0.77129,0.72802,0.590608,0.64279,0.605665,0.605341,0.591548,0.56026,0.534652,0.492718,0.55254,0.438335,0.474579,0.46379,0.47754,0.494206,0.504442,0.425456,0.39288,0.299699,0.331012,0.295153,0.28137,0.25079,0.201647,0.205086,0.199174,0.216482,0.225456,0.199266,0.132319,0.201382,0.184345,0.0898706,0.074966,-0.0258258,0.0458266,0.0224259,0.0264366,-0.0151235,0.0283548,-0.0142874,-0.00214795,0.0337895,0.0154562,0.0131374,0.0681645,0.0397419,0.0646719,0.0247896,0.0393451,0.0284865,-0.0162105,0.0491121,-0.0179962,-0.0412105,0.0273081,0.0307895,-0.0412105,0.00343241,0.0261809,-0.00699992,-0.00711954,0.0184049,-0.0681335,-0.0115808,0.021833,-0.046766,-0.0120438,0.0109635,-0.0162104,0.0365673,0.00584837,-0.000734261,0.0261809,0.00521812,0.0187895,0.0230753,0.00424409,0.0162896,0.024579,0.0219474,0.0293778,0.00545622,0.0137895,0.0324738,0.0212895,-0.17621,-0.24121,-0.31621,-0.176815,-0.305135,-0.371284,-0.570377,-0.0162104,0.10879,0.0721229,0.0421229,0.0387896,0.0387896,0.053234,0.0462896,0.0406077,0.0462895,0.10879,0.0587896,0.0987896,0.125456,0.0587896,0.18379,0.0587896,0.167123,0.25879,0.292123,0.25879,0.25879,0.27879,0.30879,0.27879,0.280218,0.27129,0.250456,0.29004,0.26788,0.281517,0.275456,0.254244,0.267123,0.25879,0.266482,0.273075,0.266482,0.26879,0.26879,0.262123,0.273075,0.26879,0.262123,0.272426,0.27802,0.281517,0.28379,0.28879,0.29629,0.30879,0.30879,0.30879,0.32129,0.30879,0.30879,0.30879,0.30879,0.30879,0.30879,0.312444,0.311273,0.310751,0.31002,0.308963,nan,nan,nan,nan,nan,nan,nan,nan,nan,nan,nan,nan,nan,nan,nan,nan,nan,nan,nan,nan,nan,nan,nan,nan,nan,nan,nan,nan,nan,nan,nan,nan,nan,nan,nan,nan,nan,nan,nan,nan,nan,nan,nan,nan,nan,nan,nan,nan,nan,nan,nan,nan,nan,nan,nan,nan,nan,nan,nan,nan,nan,nan,nan,nan,nan,nan,nan,nan,nan,nan,nan,nan,nan,nan,nan,nan,nan,nan,nan,nan,nan,nan,nan,nan,nan,nan,nan,nan,nan,nan,nan,nan,nan,nan,nan,nan,nan,nan,nan,nan,nan,nan,nan,nan,nan,nan,nan,nan,nan,nan,nan,nan,nan,nan,nan,nan,nan,nan,nan,nan,nan
1.05879,1.04629,1.04702,1.05129,1.02879,0.99879,1.01816,1.00879,1.00879,1.03379,0.946885,0.968313,0.918467,0.935713,0.871753,0.86788,0.808789,0.851971,0.80879,0.77754,0.81504,0.75879,0.77129,0.722251,0.625006,0.516142,0.536171,0.544155,0.496947,0.48479,0.516482,0.440368,0.465608,0.499699,0.469504,0.45879,0.416197,0.352268,0.415311,0.40129,0.386567,0.324579,0.322583,0.28079,0.24679,0.203234,0.260873,0.196721,0.167361,0.193638,0.14792,0.213201,0.149266,0.126437,0.0717525,0.0631374,0.0302181,0.0269714,0.0171229,0.00197137,0.0462895,0.0764366,0.0302181,0.0275396,0.00164669,-0.00121045,0.00307526,-0.00371045,0.0221229,0.0116467,-0.00996046,0.00878955,0.0146719,0.0387895,0.0456317,-0.00371045,0.0224259,0.037361,0.0162895,0.016197,-0.00155528,-0.0182938,-0.00311521,0.013962,-0.0224605,-0.0102581,0.0233057,-0.00591633,0.0159324,0.0131374,-0.0206222,0.0287895,-0.00121045,-0.00121045,0.0392243,0.0150395,0.00628955,0.0348765,0.0166843,0.0150395,0.0472511,0.0365673,0.0587896,0.0736044,0.0529072,0.0754562,0.0287895,-0.0835181,-0.0836633,-0.160776,0.0587896,-0.14121,-0.69121,-0.554847,-0.132322,0.148495,0.151097,0.15629,0.149266,0.160873,0.195746,0.16479,0.18379,0.20254,0.176181,0.19629,0.22754,0.196885,0.23379,0.25879,0.220554,0.228234,0.262123,0.289345,0.282123,0.29379,0.28379,0.269504,0.27129,0.262361,0.255848,0.27129,0.25879,0.264672,0.25879,0.25879,0.275456,0.253234,0.25879,0.262123,0.24879,0.268313,0.251647,0.268165,0.267613,0.272123,0.279378,0.27379,0.290932,0.287956,0.29379,0.31379,0.303234,0.319901,0.325456,0.330218,0.33379,0.33879,0.33879,0.34879,0.325456,0.35879,0.30879,0.30879,0.30879,0.31851,0.318167,0.317526,0.314911,nan,nan,nan,nan,nan,nan,nan,nan,nan,nan,nan,nan,nan,nan,nan,nan,nan,nan,nan,nan,nan,nan,nan,nan,nan,nan,nan,nan,nan,nan,nan,nan,nan,nan,nan,nan,nan,nan,nan,nan,nan,nan,nan,nan,nan,nan,nan,nan,nan,nan,nan,nan,nan,nan,nan,nan,nan,nan,nan,nan,nan,nan,nan,nan,nan,nan,nan,nan,nan,nan,nan,nan,nan,nan,nan,nan,nan,nan,nan,nan,nan,nan,nan,nan,nan,nan,nan,nan,nan,nan,nan,nan,nan,nan,nan,nan,nan,nan,nan,nan,nan,nan,nan,nan,nan,nan,nan,nan,nan,nan,nan,nan,nan,nan,nan,nan,nan,nan,nan,nan,nan
1.0445,1.10254,1.01879,1.00879,0.966482,0.99629,1.00879,1.03657,1.04114,1.01712,0.98129,0.956012,0.940271,0.911915,0.905665,0.863137,0.838789,0.756616,0.769316,0.789345,0.761731,0.745746,0.752907,0.742123,0.736789,0.716482,0.660713,0.581647,0.525094,0.41479,0.453526,0.467485,0.395456,0.422678,0.386731,0.354623,0.345153,0.351647,0.319396,0.277308,0.314345,0.318313,0.25879,0.315932,0.289224,0.205456,0.24629,0.200456,0.191142,0.20629,0.146885,0.221947,0.13379,0.05998,-0.00082584,0.0387895,0.0996986,0.0565168,0.0701532,0.0504562,0.0587895,0.00494339,0.0184049,0.0363758,0.035352,0.00601177,0.0733057,-0.00371045,0.0530203,0.0195038,0.0167895,0.0177181,0.0209517,0.0337895,-0.00121045,-0.0162105,-0.00321045,-0.0162105,-0.0280525,-0.000734261,0.0109635,0.0298422,0.0292441,0.0224259,0.00226781,0.00128955,0.0254562,0.00878955,0.00670622,0.0367896,0.00352639,0.0131374,0.0413982,0.0299434,0.0254562,0.0570038,0.0646719,0.0828636,0.0721229,0.0777551,0.082319,0.0728521,0.101382,0.100977,0.0910476,0.13879,0.116684,-0.0179962,0.0320454,0.0201532,0.214345,-0.39121,-0.77871,-0.644152,0.00212288,0.195456,0.180456,0.175456,0.198495,0.174919,0.181647,0.185575,0.181012,0.20879,0.203951,0.205456,0.202123,0.223075,0.222251,0.217718,0.222251,0.24879,0.24279,0.25879,0.243,0.23379,0.23379,0.242123,0.25879,0.245746,0.256012,0.26504,0.26117,0.265608,0.26117,0.249966,0.247426,0.239345,0.25879,0.24279,0.263551,0.261171,0.270153,0.25879,0.261421,0.276971,0.287361,0.297678,0.29879,0.297678,0.292123,0.29379,0.301647,0.30879,0.29879,0.325456,0.33379,0.34629,0.325456,0.35879,0.35879,0.35879,0.339746,0.335431,0.332925,0.332295,0.332847,0.333555,0.33379,nan,nan,nan,nan,nan,nan,nan,nan,nan,nan,nan,nan,nan,nan,nan,nan,nan,nan,nan,nan,nan,nan,nan,nan,nan,nan,nan,nan,nan,nan,nan,nan,nan,nan,nan,nan,nan,nan,nan,nan,nan,nan,nan,nan,nan,nan,nan,nan,nan,nan,nan,nan,nan,nan,nan,nan,nan,nan,nan,nan,nan,nan,nan,nan,nan,nan,nan,nan,nan,nan,nan,nan,nan,nan,nan,nan,nan,nan,nan,nan,nan,nan,nan,nan,nan,nan,nan,nan,nan,nan,nan,nan,nan,nan,nan,nan,nan,nan,nan,nan,nan,nan,nan,nan,nan,nan,nan,nan,nan,nan,nan,nan,nan,nan,nan,nan,nan,nan,nan,nan,nan
1.05379,1.04061,1.00879,1.05165,1.03606,1.00879,1.00879,1.04629,1.0699,0.999966,1.00879,0.98379,0.915608,0.876971,0.886567,0.83879,0.855665,0.860713,0.84379,0.82379,0.811915,0.781866,0.794901,0.73705,0.691647,0.710456,0.639345,0.579842,0.605456,0.630002,0.572678,0.585713,0.632474,0.510456,0.393975,0.411492,0.322852,0.27254,0.277361,0.305665,0.60879,0.687079,0.766915,0.652379,0.791176,0.292123,0.221833,0.265608,0.19792,0.214345,0.187737,0.173373,0.147852,0.107227,0.12629,0.0260309,0.0641467,0.0212895,0.015734,-0.01502,0.0414819,0.0150395,-0.00549617,0.0611705,0.0237895,0.0254562,0.0358166,-0.0151235,0.0421229,0.0296229,0.0380999,0.0552181,0.049861,0.0337895,0.0287896,0.00878955,0.0247895,0.00878955,0.0130753,-0.0112105,0.0220248,0.00138214,-0.0120438,0.0109635,0.0159324,0.0150396,0.0227895,0.0254562,0.0140527,0.0266467,0.0287895,0.0284324,0.0439747,0.0695038,0.0878218,0.0858166,0.0822271,0.0956317,0.115546,0.125895,0.10998,0.13379,0.121885,0.125136,0.124415,0.113551,0.141716,0.138335,0.153355,0.00231896,0.203234,-0.152733,-0.214498,-0.0370438,0.0714478,0.147979,0.164887,0.154504,0.166398,0.194659,0.199699,0.195456,0.186567,0.187737,0.195999,0.192463,0.188551,0.207627,0.179028,0.181517,0.212844,0.189871,0.20379,0.219727,0.2152,0.222892,0.226647,0.213335,0.217613,0.214345,0.213628,0.224174,0.213137,0.232004,0.22479,0.230218,0.240608,0.231012,0.238335,0.24004,0.248263,0.26129,0.25879,0.26504,0.27879,0.264345,0.290932,0.276971,0.302123,0.30879,0.29879,0.326971,0.331012,0.336567,0.34629,0.34879,0.34879,0.35879,0.35879,0.35879,0.35879,0.35879,0.35879,0.35879,0.35879,0.347453,0.34833,0.349712,0.352668,nan,nan,nan,nan,nan,nan,nan,nan,nan,nan,nan,nan,nan,nan,nan,nan,nan,nan,nan,nan,nan,nan,nan,nan,nan,nan,nan,nan,nan,nan,nan,nan,nan,nan,nan,nan,nan,nan,nan,nan,nan,nan,nan,nan,nan,nan,nan,nan,nan,nan,nan,nan,nan,nan,nan,nan,nan,nan,nan,nan,nan,nan,nan,nan,nan,nan,nan,nan,nan,nan,nan,nan,nan,nan,nan,nan,nan,nan,nan,nan,nan,nan,nan,nan,nan,nan,nan,nan,nan,nan,nan,nan,nan,nan,nan,nan,nan,nan,nan,nan,nan,nan,nan,nan,nan,nan,nan,nan,nan,nan,nan,nan,nan,nan,nan,nan,nan,nan,nan,nan,nan
1.00879,1.09629,1.00879,1.00879,1.02295,1.0199,1.07379,1.03379,1.00254,0.919659,0.827837,0.857004,0.878234,0.89879,0.88379,0.894084,0.917613,0.87802,0.871289,0.836567,0.83379,0.835105,0.782983,0.770858,0.713075,0.77906,0.819255,1.13303,1.30796,1.26816,1.3045,1.32688,1.35836,1.33694,1.28849,1.2868,1.31895,1.3537,1.35251,1.32739,1.33869,1.19222,1.2349,1.12129,1.20093,0.789182,0.130218,0.150456,0.144504,0.11182,0.133075,0.119206,0.0875774,0.144504,0.056158,0.124699,0.114053,0.0516467,0.0358729,0.0687895,0.024579,0.0719474,0.0171229,0.0491121,0.0400395,0.0145588,0.0337895,0.0272106,0.0120154,0.0171229,0.0327895,0.0110623,0.0322271,0.0267895,0.0329831,0.0273081,0.0305287,0.0427895,0.0458863,0.0462896,0.0622378,0.0570654,0.045328,0.0487896,0.0416021,0.0337895,0.0327896,0.0554562,0.0530753,0.0681645,0.0775396,0.0890527,0.091222,0.10504,0.0990673,0.114471,0.116953,0.10879,0.122619,0.120492,0.125456,0.125136,0.121535,0.135153,0.147025,0.163892,0.138597,0.14862,0.148373,0.023436,0.0293778,-0.133828,-0.167094,-0.0787105,0.0526167,0.163419,0.173884,0.20302,0.192123,0.182653,0.193405,0.169428,0.192511,0.195746,0.173263,0.197814,0.196947,0.19579,0.23196,0.200253,0.207599,0.214345,0.197025,0.221647,0.20879,0.213335,0.212015,0.225932,0.23379,0.235456,0.24879,0.248075,0.240271,0.24953,0.25129,0.237361,0.251647,0.242123,0.245746,0.256616,0.254623,0.26629,0.273495,0.26879,0.274415,0.282319,0.290608,0.289559,0.300456,0.29879,0.29629,0.29629,0.30879,0.30879,0.30879,0.30879,0.30879,0.30879,0.38379,0.40879,0.365909,0.362064,0.35841,0.356806,0.356644,0.357038,0.357587,0.358147,0.358703,nan,nan,nan,nan,nan,nan,nan,nan,nan,nan,nan,nan,nan,nan,nan,nan,nan,nan,nan,nan,nan,nan,nan,nan,nan,nan,nan,nan,nan,nan,nan,nan,nan,nan,nan,nan,nan,nan,nan,nan,nan,nan,nan,nan,nan,nan,nan,nan,nan,nan,nan,nan,nan,nan,nan,nan,nan,nan,nan,nan,nan,nan,nan,nan,nan,nan,nan,nan,nan,nan,nan,nan,nan,nan,nan,nan,nan,nan,nan,nan,nan,nan,nan,nan,nan,nan,nan,nan,nan,nan,nan,nan,nan,nan,nan,nan,nan,nan,nan,nan,nan,nan,nan,nan,nan,nan,nan,nan,nan,nan,nan,nan,nan,nan,nan,nan,nan,nan,nan,nan,nan
1.00879,1.05879,1.02536,1.00879,1.03379,1.05046,1.01173,1.04212,0.802539,0.764147,0.668789,0.81741,0.868313,0.867485,0.754244,0.816482,0.855848,0.801647,0.729842,0.778234,0.819901,0.792123,0.817718,0.789345,1.17736,1.19137,1.19121,1.28267,1.53732,1.67197,1.75114,2.06113,2.10641,2.15879,2.15727,2.12061,2.07721,2.12391,1.75534,1.32308,1.31493,1.38591,1.5497,1.22954,1.32996,1.32302,0.227211,0.201647,0.129943,0.165456,0.123075,0.10629,0.070328,0.0664819,0.0708585,0.000456222,0.00278954,0.00878955,-0.0162104,0.0355753,0.0064086,0.0241742,0.0351053,0.0337896,0.0403685,0.0537895,0.0140527,0.0365673,0.00878955,0.0131374,0.0192062,0.0233729,0.000894814,0.0109635,0.0174852,0.00424409,0.0111705,0.0287896,0.0327896,0.0208585,0.045276,0.0534324,0.0749186,0.0520328,0.0545038,0.068467,0.0646719,0.0802181,0.0769714,0.0980753,0.107474,0.106087,0.112636,0.123654,0.10754,0.122204,0.111062,0.12129,0.116567,0.128557,0.126738,0.142123,0.135456,0.14479,0.143,0.142123,0.140497,0.13379,0.148986,0.0206175,-0.0612104,-0.39121,-0.32246,-0.138829,0.0442734,0.157769,0.161229,0.167973,0.18498,0.199007,0.18379,0.205759,0.176647,0.164742,0.19254,0.1696,0.185105,0.207274,0.191602,0.19629,0.199033,0.19933,0.205131,0.19933,0.198533,0.223306,0.219901,0.203617,0.20879,0.20479,0.21079,0.22479,0.22754,0.219659,0.223075,0.24288,0.24879,0.21879,0.226437,0.249966,0.261915,0.261731,0.25879,0.25879,0.281866,0.286062,0.304244,0.30879,0.299699,0.31788,0.32129,0.34004,0.337361,0.325456,0.34629,0.32879,0.351647,0.37129,0.37879,0.35879,0.35879,0.35879,0.35879,0.35879,0.35879,0.362192,0.362903,0.363083,0.36185,nan,nan,nan,nan,nan,nan,nan,nan,nan,nan,nan,nan,nan,nan,nan,nan,nan,nan,nan,nan,nan,nan,nan,nan,nan,nan,nan,nan,nan,nan,nan,nan,nan,nan,nan,nan,nan,nan,nan,nan,nan,nan,nan,nan,nan,nan,nan,nan,nan,nan,nan,nan,nan,nan,nan,nan,nan,nan,nan,nan,nan,nan,nan,nan,nan,nan,nan,nan,nan,nan,nan,nan,nan,nan,nan,nan,nan,nan,nan,nan,nan,nan,nan,nan,nan,nan,nan,nan,nan,nan,nan,nan,nan,nan,nan,nan,nan,nan,nan,nan,nan,nan,nan,nan,nan,nan,nan,nan,nan,nan,nan,nan,nan,nan,nan,nan,nan,nan,nan,nan,nan
1.00879,1.02531,1.00879,1.00879,1.02546,1.05165,0.99629,0.976647,1.00879,0.911421,0.898263,0.8381,0.82129,0.922426,0.881866,0.818789,0.955665,0.850456,0.84629,0.865755,0.851417,0.850232,0.880125,0.924571,1.03379,0.975456,0.83379,0.80879,0.74629,0.74629,1.97129,2.38379,2.38379,2.16841,2.17823,2.26296,2.34941,1.86405,1.17165,0.868611,0.903234,0.892123,1.18786,1.23691,1.25592,1.3263,0.238419,0.201647,0.23526,0.272678,0.242123,0.26129,0.1881,0.10879,0.0847896,0.0328636,0.0294792,0.0195038,-0.0152105,-0.0105653,-0.000139028,0.00712288,0.0120154,-0.00321045,0.0259324,0.0127895,-0.0412105,0.0118199,0.00706541,-0.00274892,0.0187895,0.0167895,0.0150396,-0.00257409,0.0241742,0.0212895,0.0034324,0.0260972,0.0307895,0.0246986,0.0427181,0.0416467,0.0495303,0.0555637,0.0626357,0.0678805,0.0636282,0.0796229,0.0655463,0.0742657,0.0837895,0.0929359,0.0895588,0.0906077,0.110178,0.104244,0.1152,0.120694,0.113441,0.125895,0.135456,0.136697,0.131517,0.139699,0.13113,0.134926,0.14629,0.155665,0.130741,-0.0260419,-0.117877,-0.334544,-0.30371,-0.168134,0.0394714,0.160676,0.187221,0.194836,0.16879,0.183149,0.181409,0.186838,0.215932,0.20504,0.185105,0.211492,0.195886,0.187361,0.232123,0.191142,0.229757,0.207004,0.195456,0.218249,0.207177,0.202729,0.228234,0.239559,0.256866,0.241398,0.235713,0.273373,0.26629,0.26129,0.26129,0.256012,0.264053,0.250895,0.256012,0.264345,0.267123,0.26504,0.262123,0.279623,0.26879,0.26879,0.273075,0.273075,0.28379,0.27879,0.28879,0.28379,0.30879,0.30879,0.30879,0.344951,0.40879,0.40879,0.40879,0.40879,0.377674,0.373107,0.368187,0.366409,0.366955,0.368311,0.369787,0.370955,0.371376,nan,nan,nan,nan,nan,nan,nan,nan,nan,nan,nan,nan,nan,nan,nan,nan,nan,nan,nan,nan,nan,nan,nan,nan,nan,nan,nan,nan,nan,nan,nan,nan,nan,nan,nan,nan,nan,nan,nan,nan,nan,nan,nan,nan,nan,nan,nan,nan,nan,nan,nan,nan,nan,nan,nan,nan,nan,nan,nan,nan,nan,nan,nan,nan,nan,nan,nan,nan,nan,nan,nan,nan,nan,nan,nan,nan,nan,nan,nan,nan,nan,nan,nan,nan,nan,nan,nan,nan,nan,nan,nan,nan,nan,nan,nan,nan,nan,nan,nan,nan,nan,nan,nan,nan,nan,nan,nan,nan,nan,nan,nan,nan,nan,nan,nan,nan,nan,nan,nan,nan,nan
1.00879,1.00879,1.00879,1.00879,1.00879,1.00879,1.00879,1.00879,1.06879,1.06504,0.974174,0.947251,1.01435,1.00046,1.20879,0.973387,0.954638,1.15879,0.929492,1.10879,0.905944,0.902994,0.934574,1.05879,0.98379,0.990241,0.978456,0.986625,0.85879,0.80879,1.65512,1.98271,2.33379,2.19629,2.43022,2.21593,1.9545,2.08232,0.665686,0.83379,0.887221,0.784345,1.19279,1.17546,1.29883,1.39561,0.268405,0.275456,0.20379,0.254943,0.23379,0.182864,0.152338,0.137822,0.10679,0.0744146,0.139345,0.0921229,0.104943,0.129623,0.0812896,0.0931645,0.099966,0.0754562,0.0695038,0.0726784,0.0516467,0.0607896,0.053234,0.063335,0.0496986,0.0434049,0.0181645,0.0324738,0.0324738,0.0370504,0.0500939,0.0536171,0.0395588,0.0427895,0.0462895,0.0677181,0.0587896,0.0743068,0.0783548,0.0878218,0.0887895,0.100218,0.0995303,0.0949964,0.106225,0.11026,0.121947,0.126567,0.140368,0.127211,0.121647,0.141602,0.147025,0.147814,0.149415,0.139672,0.149007,0.148324,0.152407,0.153234,0.14629,0.145969,0.145969,0.00878956,-0.0735634,-0.334068,-0.329672,-0.149544,0.0252601,0.17161,0.188519,0.175456,0.194727,0.192613,0.198183,0.188477,0.169396,0.16741,0.18379,0.181203,0.182123,0.203617,0.169901,0.199861,0.18879,0.190456,0.193272,0.186062,0.151647,0.213335,0.18629,0.150094,0.181866,0.173075,0.190608,0.213335,0.219504,0.254623,0.267123,0.281517,0.269504,0.254623,0.262123,0.254943,0.281866,0.292123,0.275456,0.301097,0.297251,0.290608,0.324174,0.322426,0.336062,0.326971,0.32379,0.35379,0.33379,0.351647,0.351647,0.35254,0.35879,0.35879,0.35879,0.375456,0.375456,0.38379,0.35879,0.35879,0.38379,0.378364,0.380395,0.382335,0.383702,nan,nan,nan,nan,nan,nan,nan,nan,nan,nan,nan,nan,nan,nan,nan,nan,nan,nan,nan,nan,nan,nan,nan,nan,nan,nan,nan,nan,nan,nan,nan,nan,nan,nan,nan,nan,nan,nan,nan,nan,nan,nan,nan,nan,nan,nan,nan,nan,nan,nan,nan,nan,nan,nan,nan,nan,nan,nan,nan,nan,nan,nan,nan,nan,nan,nan,nan,nan,nan,nan,nan,nan,nan,nan,nan,nan,nan,nan,nan,nan,nan,nan,nan,nan,nan,nan,nan,nan,nan,nan,nan,nan,nan,nan,nan,nan,nan,nan,nan,nan,nan,nan,nan,nan,nan,nan,nan,nan,nan,nan,nan,nan,nan,nan,nan,nan,nan,nan,nan,nan,nan
1.00879,1.06504,1.03606,1.00879,1.00879,1.07417,1.16712,1.03101,0.95879,0.95879,1.17546,1.20879,1.15879,1.20879,1.0629,1.15879,1.02476,1.0047,0.994695,0.992235,0.986774,0.978425,0.989414,1.003,1.00354,0.984252,0.946514,0.938973,1.03936,1.32245,1.72141,1.98895,2.43022,2.35323,1.87268,1.50534,1.7247,1.9761,1.97033,0.885105,0.938998,0.610608,0.885983,1.08852,1.19793,1.32977,0.294504,0.197678,0.139559,0.17129,0.20879,0.129757,0.151647,0.161062,0.13079,0.13379,0.0825991,0.0508948,0.0626357,0.0562895,0.08498,0.0564086,0.0659324,0.0470248,0.0310118,0.053234,0.0306645,0.0365673,0.032319,0.0305287,0.0687895,0.0445038,0.0480753,0.0554562,0.0521229,0.0793778,0.0587896,0.0610623,0.053234,0.0542441,0.0610623,0.0802181,0.0837895,0.088335,0.0708585,0.0799434,0.0754562,0.0921229,0.0862089,0.0799434,0.0656861,0.0762314,0.0911425,0.0925105,0.101437,0.0991121,0.0921229,0.105665,0.103526,0.10629,0.116898,0.0951532,0.104102,0.0942734,0.126971,0.124174,0.111492,0.117361,0.120911,-0.00132282,-0.0502104,-0.35996,-0.33496,-0.14121,0.00658366,0.192426,0.207274,0.223306,0.206225,0.217718,0.219901,0.210456,0.211915,0.227123,0.218049,0.243975,0.243272,0.23879,0.253234,0.212361,0.242123,0.242123,0.238419,0.251097,0.239224,0.204623,0.251971,0.242123,0.245153,0.26629,0.264345,0.261731,0.24879,0.250456,0.225456,0.22129,0.21379,0.180218,0.18379,0.20254,0.20254,0.20879,0.22879,0.22879,0.23879,0.25879,0.28379,0.27879,0.28879,0.28379,0.29629,0.325456,0.33379,0.33379,0.30879,0.30879,0.345282,0.37879,0.38879,0.40879,0.40879,0.368798,0.372161,0.379302,0.386764,0.391286,0.393585,0.395312,0.396289,nan,nan,nan,nan,nan,nan,nan,nan,nan,nan,nan,nan,nan,nan,nan,nan,nan,nan,nan,nan,nan,nan,nan,nan,nan,nan,nan,nan,nan,nan,nan,nan,nan,nan,nan,nan,nan,nan,nan,nan,nan,nan,nan,nan,nan,nan,nan,nan,nan,nan,nan,nan,nan,nan,nan,nan,nan,nan,nan,nan,nan,nan,nan,nan,nan,nan,nan,nan,nan,nan,nan,nan,nan,nan,nan,nan,nan,nan,nan,nan,nan,nan,nan,nan,nan,nan,nan,nan,nan,nan,nan,nan,nan,nan,nan,nan,nan,nan,nan,nan,nan,nan,nan,nan,nan,nan,nan,nan,nan,nan,nan,nan,nan,nan,nan,nan,nan,nan,nan,nan,nan
1.09879,1.08879,1.10879,1.15879,1.35879,1.35879,1.30879,1.1347,1.30879,1.08249,1.08707,1.10396,1.20879,1.12641,1.12555,1.11582,1.09634,1.07363,1.0605,1.0614,1.0656,1.04861,1.02762,1.02009,1.01366,1.02156,1.08746,1.19263,1.33023,1.54319,1.7584,2.40879,1.74736,1.88684,1.69421,1.16754,1.18152,1.42279,1.79941,1.78488,1.44427,0.952033,0.887199,0.99913,1.13997,1.27281,0.254244,0.236376,0.16788,0.050725,0.0316467,0.0921229,0.00484219,-0.0106549,0.00706541,0.0387895,0.0317062,0.00197136,-0.01502,-0.0432938,-0.0349605,-0.0297819,-0.0283072,-0.0297819,-0.0358533,-0.031533,-0.0495438,-0.036038,-0.027148,-0.0193355,-0.0215676,-0.0103281,-0.0258258,-0.00787712,-0.00683545,-0.014648,0.00437778,-0.00509934,-0.00484682,0.0269714,0.032319,0.019046,0.0403685,0.049861,0.0571766,0.0498152,0.0587895,0.0378218,0.0671229,0.08498,0.10879,0.10879,0.107123,0.119901,0.141048,0.15079,0.174415,0.139742,0.15879,0.17879,0.157004,0.17379,0.16504,0.173373,0.167718,0.17479,0.160575,0.131203,0.140608,-0.04243,-0.135529,-0.349544,-0.32246,-0.15712,0.0104025,0.15879,0.147678,0.168405,0.18079,0.16879,0.181866,0.182864,0.179623,0.185873,0.20629,0.220554,0.221833,0.204244,0.222426,0.190369,0.186567,0.200895,0.206012,0.211915,0.236567,0.232599,0.23679,0.247678,0.254028,0.25879,0.243,0.250895,0.279378,0.26379,0.265608,0.256517,0.27879,0.274174,0.28379,0.286567,0.29129,0.29629,0.297678,0.322426,0.337956,0.347678,0.353234,0.34629,0.349699,0.380218,0.35879,0.35879,0.365932,0.365932,0.38879,0.37879,0.38379,0.38379,0.00878955,0.40879,0.40879,0.40879,0.40879,0.40879,0.40879,0.403621,0.406829,0.408316,0.40879,nan,nan,nan,nan,nan,nan,nan,nan,nan,nan,nan,nan,nan,nan,nan,nan,nan,nan,nan,nan,nan,nan,nan,nan,nan,nan,nan,nan,nan,nan,nan,nan,nan,nan,nan,nan,nan,nan,nan,nan,nan,nan,nan,nan,nan,nan,nan,nan,nan,nan,nan,nan,nan,nan,nan,nan,nan,nan,nan,nan,nan,nan,nan,nan,nan,nan,nan,nan,nan,nan,nan,nan,nan,nan,nan,nan,nan,nan,nan,nan,nan,nan,nan,nan,nan,nan,nan,nan,nan,nan,nan,nan,nan,nan,nan,nan,nan,nan,nan,nan,nan,nan,nan,nan,nan,nan,nan,nan,nan,nan,nan,nan,nan,nan,nan,nan,nan,nan,nan,nan,nan
1.22129,1.16355,1.35879,1.18733,1.21707,1.35879,1.22952,1.19536,1.15138,1.12534,1.12905,1.14748,1.16159,1.16736,1.16685,1.16045,1.14798,1.13028,1.1118,1.1042,1.1034,1.07662,1.04019,1.0344,1.14227,1.51465,1.76218,1.78365,1.75103,1.71734,1.71709,1.18379,1.88079,1.84486,1.8235,1.57618,1.29657,0.909952,1.11851,1.35017,1.72679,1.32407,1.35403,1.25828,1.27103,1.36093,0.749112,0.250895,0.25879,0.247678,0.216684,0.221833,0.15254,0.118049,0.00534127,0.00424409,-0.0104412,-0.0316866,-0.00371045,0.0224259,0.0312895,0.0681645,0.0542441,0.062361,0.0617307,0.0837895,0.0815168,0.0695038,0.0721229,0.0818665,0.0934049,0.0810118,0.10879,0.10879,0.0951532,0.0951532,0.0712895,0.0626357,0.0681645,0.0737895,0.0837895,0.0887895,0.0921229,0.0921229,0.115311,0.10879,0.104028,0.10879,0.113962,0.112636,0.116684,0.117485,0.110873,0.125932,0.126357,0.122025,0.117718,0.110514,0.122303,0.112636,0.103384,0.113335,0.12129,0.138058,0.148075,0.139742,0.139022,0.157507,0.166365,-0.0284327,-0.0816866,-0.337639,-0.313938,-0.185328,0.0218665,0.204943,0.197025,0.22754,0.232227,0.193075,0.223306,0.221753,0.22879,0.219134,0.239224,0.242123,0.240608,0.24629,0.199266,0.26279,0.282474,0.276181,0.250456,0.260963,0.249966,0.25879,0.269901,0.262361,0.281866,0.26129,0.28526,0.268165,0.278234,0.289559,0.295456,0.27879,0.262636,0.285713,0.27754,0.290932,0.281012,0.254623,0.281517,0.21504,0.24379,0.27379,0.204943,0.24879,0.276971,0.215456,0.337361,0.187361,0.29379,0.281012,0.30879,0.323075,0.27754,0.287956,0.425456,0.41879,0.40879,-0.00371045,0.354704,0.381108,0.402975,0.41452,0.41856,0.420312,0.42129,nan,nan,nan,nan,nan,nan,nan,nan,nan,nan,nan,nan,nan,nan,nan,nan,nan,nan,nan,nan,nan,nan,nan,nan,nan,nan,nan,nan,nan,nan,nan,nan,nan,nan,nan,nan,nan,nan,nan,nan,nan,nan,nan,nan,nan,nan,nan,nan,nan,nan,nan,nan,nan,nan,nan,nan,nan,nan,nan,nan,nan,nan,nan,nan,nan,nan,nan,nan,nan,nan,nan,nan,nan,nan,nan,nan,nan,nan,nan,nan,nan,nan,nan,nan,nan,nan,nan,nan,nan,nan,nan,nan,nan,nan,nan,nan,nan,nan,nan,nan,nan,nan,nan,nan,nan,nan,nan,nan,nan,nan,nan,nan,nan,nan,nan,nan,nan,nan,nan,nan,nan
1.35879,1.22163,1.22232,1.23968,1.27031,1.29142,1.28834,1.25748,1.20947,1.17398,1.1692,1.18138,1.1901,1.19191,1.18793,1.17622,1.16285,1.15658,1.13913,1.11579,nan,1.08379,1.04442,1.28852,1.77774,1.89265,1.88944,1.86316,1.80826,1.95879,1.65296,1.2195,1.71394,1.82879,1.95879,1.58379,1.35546,1.25641,1.53453,1.61139,1.37599,0.992817,0.747361,0.913874,1.16886,1.27774,0.523941,0.25302,0.22916,0.20879,0.203234,0.187956,0.178234,0.192123,0.16129,0.12629,0.120554,0.10879,0.0962895,0.0637896,0.0646719,0.0494146,0.0566156,0.0554562,0.0678805,0.0476784,0.0587895,0.0654562,0.0662896,0.0587896,0.0614211,0.0687895,0.0671229,0.0472511,0.0705543,0.0712895,0.0687896,0.0721229,0.0778372,0.0527896,0.0567895,0.0631374,0.0622378,0.0712895,0.0554562,0.0614922,0.0693956,0.0678805,0.0643451,0.0587895,0.0225827,0.0763571,0.0636282,0.0956316,0.0998152,0.0996986,0.103951,0.111647,0.114345,0.14629,0.188477,0.162636,0.179102,0.175456,0.180411,0.16879,0.171647,0.164053,0.18379,-0.00906761,-0.0396953,-0.363938,-0.32121,-0.13371,0.0327026,0.184652,0.199579,0.223075,0.188201,0.21026,0.202338,0.229244,0.218049,0.232864,0.215932,0.226097,0.216482,0.23679,0.19792,0.231706,0.214147,0.241398,0.236062,0.23879,0.24792,0.269659,0.25079,0.27754,0.194901,0.244901,0.249699,0.228355,0.255456,0.23379,0.237737,0.264672,0.255665,0.305456,0.217123,0.24629,0.271947,0.270153,0.302907,0.27129,0.305848,0.238201,0.32129,0.285713,0.27802,0.342123,0.201097,0.30879,0.24879,0.30879,0.32879,0.20879,0.20879,0.23379,0.302592,0.23379,0.0887895,0.425456,0.40879,0.40879,0.43379,0.426391,0.430201,0.432314,0.433702,nan,nan,nan,nan,nan,nan,nan,nan,nan,nan,nan,nan,nan,nan,nan,nan,nan,nan,nan,nan,nan,nan,nan,nan,nan,nan,nan,nan,nan,nan,nan,nan,nan,nan,nan,nan,nan,nan,nan,nan,nan,nan,nan,nan,nan,nan,nan,nan,nan,nan,nan,nan,nan,nan,nan,nan,nan,nan,nan,nan,nan,nan,nan,nan,nan,nan,nan,nan,nan,nan,nan,nan,nan,nan,nan,nan,nan,nan,nan,nan,nan,nan,nan,nan,nan,nan,nan,nan,nan,nan,nan,nan,nan,nan,nan,nan,nan,nan,nan,nan,nan,nan,nan,nan,nan,nan,nan,nan,nan,nan,nan,nan,nan,nan,nan,nan,nan,nan,nan,nan,nan
1.28187,1.27707,1.27589,1.28795,1.31427,1.33237,1.33217,1.31227,1.2747,1.23985,1.21407,1.20355,1.20421,1.20414,1.19912,1.17636,1.15914,1.15879,nan,0.94629,nan,0.692123,0.702189,1.13451,1.67744,1.7898,1.79782,1.94212,1.83379,1.80879,1.87546,1.55197,1.75816,1.74133,1.65879,1.55879,1.2945,1.57417,1.4184,1.39911,0.535817,0.21504,0.29288,0.614887,0.680883,0.310402,0.18879,0.193272,0.227755,0.20879,0.104623,0.150456,0.156706,0.112361,0.0659324,0.0778372,0.0534324,0.0266467,0.0519714,0.0266467,0.0587896,0.0431645,0.056158,0.0566156,0.0519714,0.0219474,0.0302181,0.0244145,0.03498,0.0205543,0.0196591,0.00164669,0.0310118,0.0108729,0.0296229,0.0127895,-0.0120438,0.014195,-0.0128771,0.0136283,0.0221229,0.0306645,0.0145588,0.0378218,0.0287895,0.051893,0.0695038,0.0796229,0.0945038,0.101437,0.110713,0.10879,0.127211,0.148373,0.128234,0.126971,0.129623,0.142123,0.141548,0.15254,0.157227,0.145456,0.143975,0.12754,0.138058,0.142573,0.148183,0.131012,0.131203,-0.035731,-0.0684832,-0.336665,-0.29121,-0.13496,0.027361,0.203108,0.201893,0.17906,0.171647,0.183075,0.19379,0.206012,0.211492,0.214345,0.229943,0.205564,0.25079,0.205218,0.248445,0.22129,0.215932,0.247123,0.212493,0.26788,0.20279,0.20629,0.264672,0.228355,0.28498,0.248373,0.253526,0.294084,0.204028,0.26504,0.24879,0.251647,0.28379,0.220153,0.262956,0.194084,0.255848,0.235713,0.229623,0.267123,0.201097,0.25254,0.21788,0.20879,0.22379,0.151647,0.351647,0.33379,0.325456,0.32754,0.253234,0.373075,0.25879,0.350456,0.28379,0.217123,0.425456,0.359001,0.387799,0.414075,0.430746,0.438546,0.441922,0.444324,0.446159,nan,nan,nan,nan,nan,nan,nan,nan,nan,nan,nan,nan,nan,nan,nan,nan,nan,nan,nan,nan,nan,nan,nan,nan,nan,nan,nan,nan,nan,nan,nan,nan,nan,nan,nan,nan,nan,nan,nan,nan,nan,nan,nan,nan,nan,nan,nan,nan,nan,nan,nan,nan,nan,nan,nan,nan,nan,nan,nan,nan,nan,nan,nan,nan,nan,nan,nan,nan,nan,nan,nan,nan,nan,nan,nan,nan,nan,nan,nan,nan,nan,nan,nan,nan,nan,nan,nan,nan,nan,nan,nan,nan,nan,nan,nan,nan,nan,nan,nan,nan,nan,nan,nan,nan,nan,nan,nan,nan,nan,nan,nan,nan,nan,nan,nan,nan,nan,nan,nan,nan,nan
1.32215,1.3221,1.32394,1.33017,1.34493,1.35357,1.35247,1.34349,1.32127,1.30568,1.25761,1.14137,1.0504,0.949303,0.868279,0.832293,0.818778,0.794781,0.78189,0.775162,0.742915,0.701722,0.690002,0.72039,0.939916,1.26543,1.44346,1.50372,1.89212,1.88379,0.95879,1.27723,1.45879,1.38262,1.83379,1.74212,0.48379,0.47802,0.365932,0.268405,0.302729,0.33629,0.323075,0.15879,0.100456,0.29379,0.231012,0.20279,0.154943,0.13379,0.0982632,0.0640527,0.100977,0.0619145,0.0337895,0.0174852,0.0547895,0.00164669,0.0154562,-0.0148947,0.0193159,0.00651682,0.00212289,-0.0162104,0.0111705,9.38959e-05,-0.0328771,-0.0189882,-0.0298468,-0.0200566,-0.0457559,0.0187895,0.00323399,0.00402764,0.00686647,0.0483729,0.00878955,0.0476784,0.0617307,0.0696591,0.0895588,0.0921229,0.0947895,0.0915482,0.101893,0.10379,0.111171,0.10279,0.117123,0.114559,0.10879,0.120328,0.124415,0.110873,0.11741,0.12008,0.106706,0.0974992,0.11079,0.105932,0.11129,0.120417,0.119765,0.149815,0.172123,0.167613,0.170859,0.192123,0.14879,-0.0162105,-0.0557266,-0.364287,-0.305496,-0.125826,0.0541384,0.220014,0.2152,0.232474,0.223424,0.252033,0.201647,0.204504,0.202338,0.20879,0.22879,0.215932,0.19004,0.232004,0.207004,0.256409,0.198373,0.225456,0.254442,0.226181,0.23705,0.248263,0.225456,0.272123,0.21788,0.279842,0.25879,0.25879,0.30254,0.273495,0.301097,0.287737,0.24379,0.331866,0.273075,0.28879,0.28379,0.288201,0.337956,0.262361,0.34004,0.28379,0.30879,0.354244,0.24879,0.379623,0.281517,0.351647,0.30254,0.30254,0.43379,0.180218,0.43379,0.33379,0.23379,0.45879,0.45879,0.44629,0.442123,0.45879,0.45879,0.44372,0.449761,0.453024,0.455316,nan,nan,nan,nan,nan,nan,nan,nan,nan,nan,nan,nan,nan,nan,nan,nan,nan,nan,nan,nan,nan,nan,nan,nan,nan,nan,nan,nan,nan,nan,nan,nan,nan,nan,nan,nan,nan,nan,nan,nan,nan,nan,nan,nan,nan,nan,nan,nan,nan,nan,nan,nan,nan,nan,nan,nan,nan,nan,nan,nan,nan,nan,nan,nan,nan,nan,nan,nan,nan,nan,nan,nan,nan,nan,nan,nan,nan,nan,nan,nan,nan,nan,nan,nan,nan,nan,nan,nan,nan,nan,nan,nan,nan,nan,nan,nan,nan,nan,nan,nan,nan,nan,nan,nan,nan,nan,nan,nan,nan,nan,nan,nan,nan,nan,nan,nan,nan,nan,nan,nan,nan
1.34631,1.34826,1.35307,1.35805,1.35879,1.35301,1.35844,1.324,nan,nan,0.859725,0.858855,0.85696,0.851724,0.843606,0.832226,0.80935,0.761764,0.750162,0.751733,0.731617,0.699668,0.681276,0.675474,0.694283,0.787917,0.931665,1.0379,1.07013,1.02976,0.963124,0.50879,0.85879,1.79266,1.59629,0.43379,0.455218,0.344084,0.222123,0.123495,0.26504,0.353234,0.329623,0.33379,0.0434049,0.087361,0.250725,0.119901,0.103234,0.107177,0.11879,0.0131374,0.000252966,0.016602,-0.0233533,-0.0287105,0.000456207,-0.0181335,-0.043842,-0.00436834,-0.0139377,-0.0123643,-0.00417341,0.0114211,0.0153113,0.0376357,0.0462895,0.0643451,0.0676131,0.0837895,0.0787895,0.0695038,0.0699007,0.0854562,0.0656077,0.0733729,0.0780203,0.0775396,0.0837895,0.0847896,0.0722511,0.0802181,0.0870504,0.0903685,0.0962895,0.0852601,0.0991742,0.110514,0.0974992,0.095969,0.093638,0.0824007,0.102033,0.0837896,0.11379,0.151647,0.13379,0.154442,0.17754,0.172251,0.15479,0.168405,0.155848,0.163075,0.157177,0.17879,0.15379,0.17129,0.170859,-0.023678,-0.0609074,-0.33212,-0.299544,-0.0957559,0.0464945,0.210105,0.22129,0.193405,0.19879,0.176647,0.1881,0.261915,0.255665,0.287123,0.25879,0.236567,0.244727,0.210178,0.236062,0.264559,0.282123,0.276647,0.250725,0.201647,0.261062,0.215932,0.26679,0.24279,0.25879,0.312361,0.28526,0.297025,0.25879,0.30879,0.28379,0.230665,0.295153,0.222678,0.248075,0.24629,0.230218,0.27129,0.199966,0.285456,0.280218,0.204943,0.30879,0.240608,0.36504,0.24004,0.317123,0.303234,0.25879,0.375456,0.25879,0.317123,0.24879,0.16879,0.40879,0.20879,0.33953,0.354502,0.372789,0.390779,0.405423,0.417463,0.428695,0.440671,0.45587,nan,nan,nan,nan,nan,nan,nan,nan,nan,nan,nan,nan,nan,nan,nan,nan,nan,nan,nan,nan,nan,nan,nan,nan,nan,nan,nan,nan,nan,nan,nan,nan,nan,nan,nan,nan,nan,nan,nan,nan,nan,nan,nan,nan,nan,nan,nan,nan,nan,nan,nan,nan,nan,nan,nan,nan,nan,nan,nan,nan,nan,nan,nan,nan,nan,nan,nan,nan,nan,nan,nan,nan,nan,nan,nan,nan,nan,nan,nan,nan,nan,nan,nan,nan,nan,nan,nan,nan,nan,nan,nan,nan,nan,nan,nan,nan,nan,nan,nan,nan,nan,nan,nan,nan,nan,nan,nan,nan,nan,nan,nan,nan,nan,nan,nan,nan,nan,nan,nan,nan,nan
1.35815,nan,1.35879,0.143578,0.10879,0.117343,0.111753,0.105648,0.18022,0.461496,0.783747,0.849078,0.850407,0.846154,0.838343,0.822949,0.789315,0.73908,0.72174,0.725104,0.713589,0.688523,0.669132,0.659991,0.652675,0.652838,0.67525,0.65879,0.625456,0.573075,0.53379,0.536062,0.48526,1.13379,0.491142,0.476437,0.402907,0.42379,0.42879,0.415932,0.323495,0.31879,0.329244,0.319901,0.31788,0.25379,0.23379,0.210514,0.201647,0.142123,0.132599,0.124007,0.100456,0.0733057,0.0664818,0.0199007,0.0495303,0.0324738,0.0435722,0.0744146,0.0621229,0.0775396,0.0887895,0.0724259,0.0587895,0.0643451,0.0521229,0.0565168,0.0522678,0.053234,0.0411425,0.0654562,0.0724259,0.0546229,0.0337896,0.0540276,0.0807895,0.0614211,0.0360623,0.063335,0.0863758,0.0693159,0.062361,0.0645588,0.0449964,0.0618198,0.0853521,0.0844306,0.12279,0.10079,0.12008,0.113335,0.140456,0.136731,0.147251,0.149112,0.16879,0.154244,0.18379,0.151647,0.150456,0.180665,0.14879,0.14629,0.161915,0.164887,0.179623,0.157438,0.16379,0.000355795,0.00395081,-0.29621,-0.316211,-0.106835,0.0317781,0.203526,0.210305,0.223306,0.234504,0.193,0.213335,0.21379,0.197678,0.19792,0.206866,0.19004,0.22008,0.25879,0.256706,0.226971,0.23379,0.186376,0.17079,0.231012,0.224966,0.231706,0.21679,0.213137,0.19279,0.187636,0.206866,0.21379,0.236062,0.250094,0.226181,0.250094,0.21679,0.261421,0.279378,0.22629,0.305218,0.238201,0.336062,0.336062,0.263335,0.30879,0.301097,0.38379,0.295456,0.35879,0.27379,0.330218,0.351647,0.29879,0.34879,0.292123,0.22379,0.39004,0.30879,0.330218,0.45879,0.36879,0.23379,0.45879,0.339116,0.344196,0.349141,0.356616,0.377593,nan,nan,nan,nan,nan,nan,nan,nan,nan,nan,nan,nan,nan,nan,nan,nan,nan,nan,nan,nan,nan,nan,nan,nan,nan,nan,nan,nan,nan,nan,nan,nan,nan,nan,nan,nan,nan,nan,nan,nan,nan,nan,nan,nan,nan,nan,nan,nan,nan,nan,nan,nan,nan,nan,nan,nan,nan,nan,nan,nan,nan,nan,nan,nan,nan,nan,nan,nan,nan,nan,nan,nan,nan,nan,nan,nan,nan,nan,nan,nan,nan,nan,nan,nan,nan,nan,nan,nan,nan,nan,nan,nan,nan,nan,nan,nan,nan,nan,nan,nan,nan,nan,nan,nan,nan,nan,nan,nan,nan,nan,nan,nan,nan,nan,nan,nan,nan,nan,nan,nan,nan
0.792123,0.300456,0.125178,0.158262,0.19407,0.218004,0.222021,0.209257,0.270677,0.468542,0.701666,0.810974,0.830755,0.829408,0.821823,0.804113,0.76978,0.727601,0.708574,0.707381,0.697546,0.675321,0.654879,0.692123,0.70879,0.65879,0.63379,0.617123,0.45879,0.46879,0.44879,0.32879,0.473373,0.510575,0.45879,0.467123,0.422123,0.340369,0.393272,0.395456,0.422123,0.332703,0.30479,0.325456,0.30254,0.251647,0.304244,0.23079,0.25302,0.206409,0.176181,0.162123,0.169316,0.129623,0.106517,0.0879562,0.0552181,0.0614211,0.0456317,0.0676131,0.0421229,0.0382013,0.049966,0.0508948,0.0646719,0.063335,0.0392243,0.0337895,0.0392243,0.0421229,0.0664819,0.0472511,0.0500939,0.0637896,0.0212895,0.0315168,0.0458266,0.0296229,0.0327896,0.0387895,0.0337895,0.0525395,0.0846516,0.0927895,0.104442,0.116684,0.117123,0.102338,0.12629,0.120153,0.114147,0.131012,0.123075,0.0900396,0.0895588,0.105218,0.119504,0.11788,0.119396,0.122123,0.130002,0.129102,0.147123,0.149699,0.172852,0.168546,0.189053,0.188277,0.178526,0.00878954,0.0527895,-0.249544,-0.219782,-0.167877,0.0499983,0.221885,0.239345,0.193405,0.167123,0.213201,0.196833,0.23196,0.271693,0.225069,0.23379,0.282123,0.246668,0.23379,0.215686,0.235817,0.195554,0.25879,0.26079,0.217485,0.21504,0.23498,0.256517,0.282123,0.287361,0.387956,0.385713,0.38379,0.366482,0.34004,0.325456,0.314672,0.35879,0.295456,0.35379,0.34629,0.324415,0.390608,0.292123,0.354244,0.312636,0.322426,0.305665,0.263335,0.35254,0.226971,0.425456,0.287956,0.237361,0.342123,0.272426,0.342123,0.16879,0.30879,0.23379,0.50879,0.00878955,0.00878955,0.45879,0.276132,0.45879,0.27363,0.274944,0.277679,0.279317,nan,nan,nan,nan,nan,nan,nan,nan,nan,nan,nan,nan,nan,nan,nan,nan,nan,nan,nan,nan,nan,nan,nan,nan,nan,nan,nan,nan,nan,nan,nan,nan,nan,nan,nan,nan,nan,nan,nan,nan,nan,nan,nan,nan,nan,nan,nan,nan,nan,nan,nan,nan,nan,nan,nan,nan,nan,nan,nan,nan,nan,nan,nan,nan,nan,nan,nan,nan,nan,nan,nan,nan,nan,nan,nan,nan,nan,nan,nan,nan,nan,nan,nan,nan,nan,nan,nan,nan,nan,nan,nan,nan,nan,nan,nan,nan,nan,nan,nan,nan,nan,nan,nan,nan,nan,nan,nan,nan,nan,nan,nan,nan,nan,nan,nan,nan,nan,nan,nan,nan,nan
0.371334,0.502156,0.450531,0.377156,0.376909,0.387962,0.377118,0.339891,0.352667,0.478652,0.650819,0.762577,0.798232,0.85879,0.85879,0.80879,0.753579,0.723247,0.706032,0.78379,0.78379,0.692123,0.67129,0.623495,0.622123,0.592123,0.543,0.59004,0.57879,0.55879,0.489108,0.37129,0.35879,0.461915,0.510352,0.473075,0.47129,0.43129,0.395153,0.376971,0.346885,0.389224,0.21679,0.301971,0.270554,0.28379,0.302123,0.224579,0.214559,0.21741,0.16479,0.13629,0.13379,0.0787895,0.0855753,0.0535264,0.0221229,0.0837895,0.0529072,0.0287896,0.0482632,0.0640527,0.0431645,0.0324738,0.0212895,-0.0112105,0.0468848,0.0119146,-0.00121045,0.0315168,0.0272106,0.00444172,0.000456216,0.0346516,0.0413982,0.0362896,0.0587896,0.0767895,0.0847895,0.113335,0.103234,0.0968848,0.0837896,0.091602,0.121753,0.110352,0.132123,0.112636,0.100977,0.103234,0.120456,0.123263,0.107438,0.129378,0.115368,0.131763,0.124579,0.137123,0.15079,0.157065,0.177308,0.14879,0.181647,0.212636,0.214147,0.1881,0.192661,0.150218,0.156225,0.0239794,-0.0607757,-0.295756,-0.32121,-0.124544,0.0886597,0.218165,0.170456,0.201382,0.239559,0.193405,0.287361,0.235105,0.190271,0.242123,0.248263,0.237361,0.27754,0.319901,0.23879,0.239742,0.316684,0.273373,0.248373,0.35379,0.289345,0.292123,0.292123,0.28379,0.320694,0.316684,0.30254,0.241142,0.312123,0.282123,0.254623,0.35254,0.224415,0.299699,0.305848,0.336062,0.32379,0.264672,0.313335,0.27879,0.336062,0.236567,0.254943,0.299699,0.24879,0.325456,0.275456,0.26879,0.37754,0.17754,0.45879,0.18879,0.323075,0.30254,0.47129,0.330218,0.15879,0.45879,0.25419,-0.0412105,-0.0412105,0.239175,0.246688,0.254982,0.251021,nan,nan,nan,nan,nan,nan,nan,nan,nan,nan,nan,nan,nan,nan,nan,nan,nan,nan,nan,nan,nan,nan,nan,nan,nan,nan,nan,nan,nan,nan,nan,nan,nan,nan,nan,nan,nan,nan,nan,nan,nan,nan,nan,nan,nan,nan,nan,nan,nan,nan,nan,nan,nan,nan,nan,nan,nan,nan,nan,nan,nan,nan,nan,nan,nan,nan,nan,nan,nan,nan,nan,nan,nan,nan,nan,nan,nan,nan,nan,nan,nan,nan,nan,nan,nan,nan,nan,nan,nan,nan,nan,nan,nan,nan,nan,nan,nan,nan,nan,nan,nan,nan,nan,nan,nan,nan,nan,nan,nan,nan,nan,nan,nan,nan,nan,nan,nan,nan,nan,nan,nan
0.456685,0.582534,0.664661,0.634105,0.590461,0.565288,0.527189,0.463053,0.432521,0.502564,0.629191,0.725446,0.764307,0.85879,0.766177,0.83379,0.80879,0.625456,0.53379,0.696289,0.59879,0.667123,0.503234,0.56879,0.694206,0.610963,0.60879,0.55879,0.515456,0.529623,0.493243,0.457475,0.40879,0.280218,0.402907,0.491482,0.466143,0.447025,0.33479,0.356012,0.301097,0.306866,0.294084,0.190456,0.301971,0.251097,0.25379,0.21788,0.15879,0.197361,0.188477,0.136376,0.116365,0.0767896,0.084596,0.00878955,0.0325991,0.0382013,-0.0106549,0.0246986,0.0114211,0.0671229,-3.3977e-05,-3.39779e-05,-0.012639,0.00045621,0.0022678,-0.00509934,0.0324738,0.0445038,0.0733729,0.0692062,0.0741742,0.0812895,0.0882013,0.0940837,0.0893451,0.0921229,0.0892243,0.0812896,0.100456,0.10479,0.122426,0.0947271,0.0892243,0.08498,0.104244,0.0854562,0.0871229,0.084596,0.0934049,0.0656077,0.0824738,0.0837895,0.111731,0.15879,0.139559,0.150094,0.165932,0.17129,0.195328,0.177308,0.154028,0.160713,0.201647,0.17879,0.18379,0.197123,0.199861,-0.00270468,0.0507895,-0.226925,-0.22246,-0.177322,0.121915,0.235817,0.218165,0.223373,0.226531,0.25879,0.237822,0.247361,0.318405,0.272852,0.289559,0.29379,0.246885,0.216197,0.25879,0.30079,0.266197,0.29129,0.294084,0.221947,0.279244,0.293165,0.314672,0.38379,0.30879,0.329623,0.269901,0.320328,0.295153,0.292123,0.319901,0.24379,0.251647,0.32379,0.40254,0.343405,0.242123,0.301097,0.312636,0.281866,0.25879,0.280665,0.331012,0.25879,0.287361,0.34629,0.26879,0.36788,0.28379,0.425456,0.33379,0.35879,0.273075,0.50879,0.50879,0.25879,0.45879,0.45879,0.25879,0.20879,0.48379,0.243734,0.261235,0.278487,0.290647,nan,nan,nan,nan,nan,nan,nan,nan,nan,nan,nan,nan,nan,nan,nan,nan,nan,nan,nan,nan,nan,nan,nan,nan,nan,nan,nan,nan,nan,nan,nan,nan,nan,nan,nan,nan,nan,nan,nan,nan,nan,nan,nan,nan,nan,nan,nan,nan,nan,nan,nan,nan,nan,nan,nan,nan,nan,nan,nan,nan,nan,nan,nan,nan,nan,nan,nan,nan,nan,nan,nan,nan,nan,nan,nan,nan,nan,nan,nan,nan,nan,nan,nan,nan,nan,nan,nan,nan,nan,nan,nan,nan,nan,nan,nan,nan,nan,nan,nan,nan,nan,nan,nan,nan,nan,nan,nan,nan,nan,nan,nan,nan,nan,nan,nan,nan,nan,nan,nan,nan,nan
0.554413,0.664394,0.767618,0.798905,0.767884,0.10879,0.669668,0.10879,0.527024,0.0587896,0.94629,0.90879,0.60879,0.773075,0.63379,0.681012,0.695153,0.80879,0.78379,0.724174,0.75254,0.62879,0.631012,0.529623,0.50879,0.382474,0.526971,0.534652,0.571753,0.519504,0.50879,0.480293,0.55879,0.38372,0.00878955,0.162636,0.30254,0.414109,0.363477,0.2881,0.324579,0.271753,0.24792,0.18526,0.185873,0.292123,0.30879,0.300456,0.0483729,0.157599,0.132227,0.0925733,0.0587896,0.0291599,0.0304562,0.0230753,-0.0189882,0.0254562,0.0440837,0.00109724,0.03498,0.00109724,0.0183134,0.0587895,0.0393451,0.0552181,0.0640527,0.0659324,0.0637896,0.0764366,0.0775396,0.0635514,0.0903685,0.0837896,0.0879562,0.0854562,0.0683134,0.0906077,0.0927896,0.101382,0.0921229,0.0662895,0.0956317,0.0921229,0.0764366,0.110514,0.111915,0.12129,0.155665,0.149699,0.13379,0.18137,0.18137,0.197852,0.20679,0.164559,0.18279,0.171833,0.140271,0.149174,0.134715,0.13379,0.182227,0.200977,0.203951,0.173075,0.16079,0.20879,0.19679,-0.0158136,-0.0452105,-0.318988,-0.29121,-0.193988,0.11802,0.139559,0.214345,0.219901,0.268049,0.275456,0.227837,0.274579,0.261731,0.28129,0.230218,0.271833,0.294996,0.230665,0.317123,0.255665,0.270328,0.26879,0.246885,0.311915,0.292123,0.290608,0.275456,0.25879,0.300456,0.25879,0.23379,0.37129,0.22879,0.39629,0.339559,0.295153,0.39629,0.319901,0.244504,0.21879,0.229623,0.281517,0.239559,0.26788,0.300456,0.301647,0.204623,0.28379,0.263335,0.27754,0.30879,0.203234,0.34629,0.25879,0.35879,0.23379,0.45879,0.330218,0.23379,0.341241,0.316896,0.00878955,-0.0412105,0.266294,0.277571,0.30295,0.334476,0.365413,0.401979,nan,nan,nan,nan,nan,nan,nan,nan,nan,nan,nan,nan,nan,nan,nan,nan,nan,nan,nan,nan,nan,nan,nan,nan,nan,nan,nan,nan,nan,nan,nan,nan,nan,nan,nan,nan,nan,nan,nan,nan,nan,nan,nan,nan,nan,nan,nan,nan,nan,nan,nan,nan,nan,nan,nan,nan,nan,nan,nan,nan,nan,nan,nan,nan,nan,nan,nan,nan,nan,nan,nan,nan,nan,nan,nan,nan,nan,nan,nan,nan,nan,nan,nan,nan,nan,nan,nan,nan,nan,nan,nan,nan,nan,nan,nan,nan,nan,nan,nan,nan,nan,nan,nan,nan,nan,nan,nan,nan,nan,nan,nan,nan,nan,nan,nan,nan,nan,nan,nan,nan,nan
0.656498,0.746338,0.838726,0.89286,0.888832,1.00879,0.95879,0.95879,0.25879,0.20879,0.71879,0.63879,0.740932,0.764672,0.647251,0.743405,0.72129,0.80879,0.711731,0.747678,0.750895,0.71879,0.735456,0.67629,0.635456,0.59004,0.263137,0.35879,0.50679,0.531866,0.531012,0.506005,0.470652,0.414303,0.372848,0.370039,0.40254,0.355341,0.361647,0.328432,0.24279,0.30879,0.222678,0.311421,0.206012,0.317123,0.285105,0.280218,0.30254,0.18379,0.192123,0.144273,0.0880999,0.0664819,0.0587896,0.0145588,0.0315168,0.0298422,0.0619145,0.0626357,0.0676131,0.0508948,0.0614211,0.0564086,0.0687895,0.0504562,0.0754562,0.0802181,0.0445038,0.0617307,0.0737895,0.0626357,0.063335,0.0897419,0.053234,0.0825991,0.10379,0.0765315,0.0650395,0.0357126,0.118049,0.0837895,0.0972511,0.128432,0.135105,0.103526,0.11629,0.124579,0.135713,0.134877,0.132864,0.0903685,0.100094,0.10879,0.0909324,0.0815168,0.0862896,0.0903685,0.151097,0.154442,0.196885,0.15129,0.12379,0.113551,0.145328,0.144996,0.195328,0.210456,0.206616,-0.040404,-0.0392874,-0.199544,-0.274544,-0.155496,0.117123,0.23379,0.24679,0.253234,0.305665,0.18129,0.29129,0.253526,0.235873,0.19629,0.265932,0.193165,0.15254,0.300456,0.249415,0.21129,0.16504,0.20879,0.240608,0.23879,0.325456,0.30879,0.251097,0.18379,0.21879,0.22379,0.242123,0.163335,0.27129,0.186567,0.187361,0.21879,0.247678,0.254623,0.20879,0.22379,0.22129,0.26879,0.22129,0.243405,0.13379,0.22129,0.295153,0.22129,0.27754,0.315932,0.32754,0.367123,0.31879,0.367123,0.242123,0.48379,0.28879,0.37129,0.47129,0.330218,0.180218,0.475456,0.335777,0.345965,0.372597,0.409705,0.447246,0.477785,0.500832,nan,nan,nan,nan,nan,nan,nan,nan,nan,nan,nan,nan,nan,nan,nan,nan,nan,nan,nan,nan,nan,nan,nan,nan,nan,nan,nan,nan,nan,nan,nan,nan,nan,nan,nan,nan,nan,nan,nan,nan,nan,nan,nan,nan,nan,nan,nan,nan,nan,nan,nan,nan,nan,nan,nan,nan,nan,nan,nan,nan,nan,nan,nan,nan,nan,nan,nan,nan,nan,nan,nan,nan,nan,nan,nan,nan,nan,nan,nan,nan,nan,nan,nan,nan,nan,nan,nan,nan,nan,nan,nan,nan,nan,nan,nan,nan,nan,nan,nan,nan,nan,nan,nan,nan,nan,nan,nan,nan,nan,nan,nan,nan,nan,nan,nan,nan,nan,nan,nan,nan,nan
0.225456,0.492123,0.75879,1.00879,1.00879,1.00879,0.95879,0.95879,0.772183,0.740387,0.903234,0.57754,0.741289,0.879623,0.630665,0.794084,0.650895,0.78379,0.625456,0.73379,0.637361,0.754244,0.701893,0.625456,0.634876,0.665456,0.606012,0.572678,0.49879,0.504943,0.576181,0.54004,0.52129,0.465777,0.432847,0.416502,0.45879,0.375456,0.41879,0.400725,0.39953,0.360641,0.306517,0.30879,0.318165,0.23379,0.676714,1.18826,1.27236,0.574174,0.401893,0.197123,0.15079,0.112238,0.0802181,0.0787895,0.0431645,0.0650396,0.0487895,0.0650395,0.0676131,0.0744146,0.0546229,0.0560118,0.0650395,0.0741742,0.0504562,0.0706943,0.0683134,0.0687895,0.0542441,0.0772106,0.0564086,0.0566156,0.0569377,0.0481835,0.0302181,0.0893451,0.0887896,0.13879,0.119206,0.0991742,0.0664819,0.0837895,0.11504,0.115932,0.11788,0.142123,0.105848,0.0754562,0.0877369,0.053234,0.0462896,0.0540276,0.0537896,0.070328,0.13879,0.15879,0.135105,0.117123,0.0906077,0.119316,0.145328,0.131706,0.121753,0.12079,0.120328,0.124579,0.120694,-0.00454377,-0.0287105,-0.368988,-0.24121,-0.21371,0.128144,0.18379,0.25879,0.206616,0.145632,0.226437,0.201097,0.195153,0.225456,0.241398,0.211731,0.215932,0.224415,0.195153,0.180665,0.217123,0.25879,0.24879,0.225456,0.197678,0.170328,0.154943,0.19879,0.10379,0.10879,0.212123,0.140932,0.193405,0.12879,0.22802,0.18379,0.24379,0.0780203,0.17754,0.19879,0.22802,0.29629,0.180218,0.30254,0.30254,0.30879,0.48879,0.35254,0.325456,0.30879,0.37129,0.280218,0.35879,0.29629,0.325456,0.400456,0.242123,0.38879,0.48379,0.175456,0.38379,0.50879,0.50879,0.50879,0.50879,0.50879,0.481981,0.500368,0.507383,0.508674,nan,nan,nan,nan,nan,nan,nan,nan,nan,nan,nan,nan,nan,nan,nan,nan,nan,nan,nan,nan,nan,nan,nan,nan,nan,nan,nan,nan,nan,nan,nan,nan,nan,nan,nan,nan,nan,nan,nan,nan,nan,nan,nan,nan,nan,nan,nan,nan,nan,nan,nan,nan,nan,nan,nan,nan,nan,nan,nan,nan,nan,nan,nan,nan,nan,nan,nan,nan,nan,nan,nan,nan,nan,nan,nan,nan,nan,nan,nan,nan,nan,nan,nan,nan,nan,nan,nan,nan,nan,nan,nan,nan,nan,nan,nan,nan,nan,nan,nan,nan,nan,nan,nan,nan,nan,nan,nan,nan,nan,nan,nan,nan,nan,nan,nan,nan,nan,nan,nan,nan,nan
0.85879,1.05879,1.05879,1.05046,1.03736,1.00879,0.975456,0.95879,0.93379,0.925456,0.93379,0.723075,0.804943,0.781012,0.811731,0.893405,0.792123,0.812123,0.772123,0.792123,0.77129,0.742123,0.739742,0.726437,0.668313,0.656158,0.613551,0.58526,0.58879,0.50879,0.419901,0.51629,0.524579,0.48879,0.49629,0.475456,0.47129,0.47129,0.413551,0.447123,0.349415,0.351097,0.329378,0.286915,0.31379,0.219901,0.714814,0.964916,1.34827,0.940608,0.845524,0.184652,0.175456,0.121693,0.0887895,0.0683134,0.0650396,0.0650396,0.0542441,0.062361,0.0510972,0.0549434,0.0306645,0.0470248,0.0495303,0.0587896,0.0587895,0.0474259,0.0687895,-0.0134327,0.0254562,0.070328,0.0860623,0.0726784,0.0854562,0.0976784,0.0913983,0.087361,0.10879,0.0525395,0.0766467,0.0727895,0.117613,0.0857126,0.10079,0.102907,0.0659324,0.0553413,0.0666843,0.0387895,0.0546229,0.0780203,0.0537896,0.0793778,0.0974259,0.0730753,0.0802181,0.0637896,0.0587895,0.0802181,0.102123,0.0820038,0.0824738,0.0848765,0.10879,0.106706,0.10254,0.0865673,0.0865673,-0.0505325,-0.0912105,-0.22121,-0.288269,-0.154544,0.110544,0.28379,0.135456,0.139559,0.225456,0.0951532,0.116684,0.144084,0.129378,0.15879,0.16129,0.17129,0.23498,0.162636,0.164053,0.136915,0.155665,0.189559,0.223075,0.222678,0.129623,0.131517,0.15879,0.167123,0.154943,0.225456,0.175456,0.223075,0.475456,0.48379,0.400456,0.28879,0.50879,0.23379,0.30879,0.34629,0.18879,0.37129,0.23379,0.317123,0.35879,0.27879,0.19879,0.242123,0.30879,0.23379,0.18879,0.23379,0.492123,0.27879,0.28879,0.48379,0.30879,0.325456,0.30879,0.45879,0.391376,0.41559,0.434798,0.448443,0.4594,0.470394,0.482305,0.494661,0.506879,nan,nan,nan,nan,nan,nan,nan,nan,nan,nan,nan,nan,nan,nan,nan,nan,nan,nan,nan,nan,nan,nan,nan,nan,nan,nan,nan,nan,nan,nan,nan,nan,nan,nan,nan,nan,nan,nan,nan,nan,nan,nan,nan,nan,nan,nan,nan,nan,nan,nan,nan,nan,nan,nan,nan,nan,nan,nan,nan,nan,nan,nan,nan,nan,nan,nan,nan,nan,nan,nan,nan,nan,nan,nan,nan,nan,nan,nan,nan,nan,nan,nan,nan,nan,nan,nan,nan,nan,nan,nan,nan,nan,nan,nan,nan,nan,nan,nan,nan,nan,nan,nan,nan,nan,nan,nan,nan,nan,nan,nan,nan,nan,nan,nan,nan,nan,nan,nan,nan,nan,nan
1.05046,1.08379,1.00879,1.06504,1.00462,0.973075,0.955848,0.912956,0.92754,0.913335,0.897678,0.885713,0.87879,0.80879,0.85879,0.804943,0.73526,0.761567,0.77754,0.737737,0.742123,0.698789,0.723373,0.600456,0.640271,0.606409,0.572426,0.566684,0.565608,0.52802,0.55879,0.46504,0.501971,0.501971,0.463335,0.451647,0.48379,0.416772,0.340608,0.423306,0.360575,0.316197,0.324579,0.294504,0.300456,0.35379,0.319206,0.929817,1.07841,0.525456,0.70504,0.24629,0.142661,0.10254,0.074579,0.053234,0.0587895,0.0445038,0.0537896,0.0643451,0.0445038,0.0298422,0.0617307,0.0397419,-0.00591634,0.0483729,0.038335,0.0437896,0.0504562,0.0796229,0.0962895,0.100456,0.0884192,0.0869146,0.0994145,0.104943,0.0949007,0.070328,0.0754562,0.0701532,0.0627895,0.0892243,0.0887896,0.071833,0.0456317,0.0558484,0.0525395,0.0671229,0.0640527,0.0699007,0.0621229,0.0712895,0.0802181,0.0695038,0.0650396,0.0556645,0.0646719,0.0693159,0.087361,0.0778372,0.0837895,0.0812896,0.0617307,0.0741742,0.0705542,0.0970248,0.101647,0.144504,0.122123,-0.0597588,-0.272163,-0.375826,-0.404847,-0.105099,0.101772,0.116482,0.217123,0.149415,0.194504,0.15879,0.229623,0.155456,0.145153,0.220328,0.162956,0.25879,0.0587896,0.33379,0.48379,0.52129,0.0421229,0.28879,0.15879,0.130218,0.25879,0.31504,0.47129,0.23379,0.24629,0.12129,0.37129,0.50879,0.50879,0.00878955,0.00878955,0.342123,0.20879,0.492123,0.24629,0.30879,0.30879,0.175456,0.50879,0.20879,0.25879,0.25879,0.20879,0.20879,0.25879,0.25879,0.38379,0.25879,0.25879,0.38379,0.342123,0.13379,0.30879,0.342123,0.50879,0.325456,0.48379,0.50879,0.378198,0.370337,0.357813,0.349392,0.348449,0.354237,0.365468,nan,nan,nan,nan,nan,nan,nan,nan,nan,nan,nan,nan,nan,nan,nan,nan,nan,nan,nan,nan,nan,nan,nan,nan,nan,nan,nan,nan,nan,nan,nan,nan,nan,nan,nan,nan,nan,nan,nan,nan,nan,nan,nan,nan,nan,nan,nan,nan,nan,nan,nan,nan,nan,nan,nan,nan,nan,nan,nan,nan,nan,nan,nan,nan,nan,nan,nan,nan,nan,nan,nan,nan,nan,nan,nan,nan,nan,nan,nan,nan,nan,nan,nan,nan,nan,nan,nan,nan,nan,nan,nan,nan,nan,nan,nan,nan,nan,nan,nan,nan,nan,nan,nan,nan,nan,nan,nan,nan,nan,nan,nan,nan,nan,nan,nan,nan,nan,nan,nan,nan,nan
1.01712,1.11435,1.07243,1.08022,1.06749,1.02129,0.951647,0.923495,0.899415,0.912956,0.940932,0.872678,0.85879,0.83379,0.787956,0.79004,0.812956,0.805086,0.73379,0.768313,0.78629,0.724698,0.714559,0.700895,0.67629,0.581012,0.60879,0.570153,0.506409,0.52879,0.52129,0.456012,0.405086,0.456938,0.432319,0.467123,0.45879,0.416973,0.15879,0.36129,0.417123,0.36117,0.304623,0.331517,0.322426,0.266482,0.54004,0.536449,0.231866,0.255456,0.162636,0.132927,0.137361,0.082319,0.0683134,0.0406077,0.0837895,-0.0287105,0.0382013,0.0262896,0.0275395,-0.0233533,0.0681645,0.0154562,0.0796229,0.0737896,0.0956317,0.0587896,0.0754562,0.0851053,0.0837895,0.0587895,0.112123,0.100725,0.0798422,0.0431646,0.0746986,0.082319,0.0903685,0.10129,0.0792441,0.0567062,0.0542441,0.037361,0.0556646,0.0611705,0.0587896,0.0554562,0.0516467,0.0802181,0.0824738,0.0754562,0.0587895,0.0558484,0.0635515,0.0860623,0.087361,0.10254,0.0911425,0.0744145,0.0741742,0.0879562,0.120328,0.100456,0.126971,0.120328,0.0887896,0.124174,0.0857126,-0.0402845,-0.0873643,-0.11121,-0.11121,-0.105794,0.145276,0.230218,0.242123,0.0730753,0.0664819,0.18379,0.20879,0.345456,0.103234,0.192123,0.38379,0.23879,0.31879,0.39629,0.192123,0.25879,0.40254,0.21504,0.00878955,0.0921229,0.38379,0.30879,0.20879,0.25879,0.175456,0.50879,0.50879,0.342123,0.25879,0.342123,0.20879,0.00878955,0.00878955,0.13379,0.30879,0.25879,0.342123,0.25879,0.175456,0.25879,0.20879,0.25879,0.223075,0.20879,0.39629,0.20879,0.25879,0.375456,0.13379,0.223075,0.192123,0.342123,0.25879,0.192123,0.20879,0.375456,0.342123,0.294504,0.38379,0.50879,0.229615,0.212905,0.198829,0.185725,0.18344,nan,nan,nan,nan,nan,nan,nan,nan,nan,nan,nan,nan,nan,nan,nan,nan,nan,nan,nan,nan,nan,nan,nan,nan,nan,nan,nan,nan,nan,nan,nan,nan,nan,nan,nan,nan,nan,nan,nan,nan,nan,nan,nan,nan,nan,nan,nan,nan,nan,nan,nan,nan,nan,nan,nan,nan,nan,nan,nan,nan,nan,nan,nan,nan,nan,nan,nan,nan,nan,nan,nan,nan,nan,nan,nan,nan,nan,nan,nan,nan,nan,nan,nan,nan,nan,nan,nan,nan,nan,nan,nan,nan,nan,nan,nan,nan,nan,nan,nan,nan,nan,nan,nan,nan,nan,nan,nan,nan,nan,nan,nan,nan,nan,nan,nan,nan,nan,nan,nan,nan,nan
1.01879,1.15879,1.16296,1.08101,1.00462,0.987361,0.906866,0.943165,0.89629,0.882474,0.776437,0.868313,0.794504,0.79879,0.81504,0.85879,0.85879,0.79879,0.823075,0.737956,0.713551,0.699266,0.713551,0.635456,0.619134,0.548075,0.55879,0.519316,0.54004,0.494084,0.504943,0.516482,0.477211,0.456409,0.48498,0.494504,0.45879,0.50879,0.390166,0.267123,0.288201,0.373495,0.295456,0.317613,0.304244,0.280665,0.23705,0.205564,0.21629,0.22129,0.0962895,0.190369,0.124699,0.0639178,0.00878955,0.0302181,0.0362896,0.0406077,0.0254562,0.0650395,0.074579,0.0587895,0.0837895,0.0815168,0.0837895,0.0587896,0.0696591,0.0705543,0.0754562,0.0522678,0.0837896,0.0982632,0.0721229,0.0699007,0.0666843,0.0837896,0.0567062,0.0587896,0.0519714,0.0693159,0.0810118,0.0879562,0.0726784,0.0712896,0.0659324,0.0737896,0.0659324,0.0646719,0.100456,0.0962895,0.0662896,0.0310118,0.0494146,0.0629562,0.136062,0.0895588,0.10879,0.0775395,0.0766467,0.10879,0.10879,0.100456,0.0934049,0.0775395,0.0815168,0.12754,0.0987895,0.0687895,0.103234,-0.0565951,-0.11502,-0.15621,-0.19121,-0.129446,0.0681645,0.0780203,0.0587895,0.0972511,0.165456,0.12879,0.0687896,0.101647,0.0945038,0.264345,0.20879,0.25879,0.31879,0.175456,0.151647,0.223075,0.175456,0.13379,0.27129,0.32879,0.10879,0.00878955,0.20879,0.342123,0.53379,0.342123,0.20879,0.27129,0.20879,0.21879,0.25879,0.14629,0.28379,0.00878955,0.00878955,0.00878955,0.151647,0.15879,0.00878955,0.151647,0.11879,0.00878955,0.165932,0.11879,0.00878955,0.22879,0.00878955,0.087361,0.11879,0.00878955,0.00878955,0.00878955,0.00878955,0.00878955,0.0587896,0.00878955,0.00878955,0.165783,0.158349,0.00878955,0.23379,0.130084,0.123,0.118358,0.123491,nan,nan,nan,nan,nan,nan,nan,nan,nan,nan,nan,nan,nan,nan,nan,nan,nan,nan,nan,nan,nan,nan,nan,nan,nan,nan,nan,nan,nan,nan,nan,nan,nan,nan,nan,nan,nan,nan,nan,nan,nan,nan,nan,nan,nan,nan,nan,nan,nan,nan,nan,nan,nan,nan,nan,nan,nan,nan,nan,nan,nan,nan,nan,nan,nan,nan,nan,nan,nan,nan,nan,nan,nan,nan,nan,nan,nan,nan,nan,nan,nan,nan,nan,nan,nan,nan,nan,nan,nan,nan,nan,nan,nan,nan,nan,nan,nan,nan,nan,nan,nan,nan,nan,nan,nan,nan,nan,nan,nan,nan,nan,nan,nan,nan,nan,nan,nan,nan,nan,nan,nan
1.02392,1.13736,1.14953,1.08657,1.02129,1.00494,0.994084,0.895456,0.902123,0.882123,0.865932,0.89629,0.860873,0.84004,0.837956,0.82754,0.773075,0.80879,0.699699,0.712956,0.69379,0.589345,0.656158,0.582319,0.573604,0.576181,0.550895,0.54379,0.56129,0.520328,0.504244,0.455848,0.47754,0.445153,0.480665,0.479378,0.45879,0.45879,0.40879,0.44629,0.343405,0.341398,0.291142,0.244504,0.30879,0.253234,0.262123,0.198075,0.215241,0.215932,0.20879,0.214345,0.200169,0.10079,0.0701532,0.0787895,0.0643451,0.0699007,0.062361,0.0769714,0.082319,0.0587895,0.0676131,0.0650396,0.0744146,0.10254,0.0643451,0.0540276,0.0892243,0.0828636,0.0587895,0.0587896,0.0626357,0.0449007,0.0512896,0.0537896,0.0900396,0.0837895,0.062361,0.0706943,0.0558484,0.0659324,0.063335,0.0671229,0.0504562,0.0650396,0.078234,0.0406077,0.0430001,0.0360623,0.0537896,0.0837895,0.0860623,0.0699007,0.0741742,0.0587896,0.0643451,0.0587895,0.10379,0.0766467,0.101097,0.104244,0.0695038,0.0921229,0.0887896,0.0806646,0.0837895,0.0699007,0.0744145,-0.0745438,-0.15621,-0.20371,-0.173797,-0.13496,0.00700385,0.0837895,0.142123,0.0730753,0.0525395,0.0387896,0.0487895,0.0337895,0.0337895,0.0587896,0.0187895,0.0237895,0.0671229,0.00878955,0.087361,0.11879,0.00878955,0.125456,0.00878955,0.0643451,0.21879,0.28379,0.149804,0.00878955,0.192123,0.11879,0.00878955,0.0775395,0.00878955,0.00878955,0.14629,0.00878955,0.00878955,0.00878955,0.00878955,0.00878955,0.00878955,0.00878955,0.00878955,0.00878955,0.00878955,0.00878955,0.00878955,0.00878955,0.00878955,0.00878955,0.00878955,0.00878955,0.00878955,0.00878955,0.00878955,0.00878955,0.0337895,0.00878955,0.00878955,0.00878955,0.0727138,0.00878955,0.00878955,-0.0412105,-0.0412105,0.0737865,0.0732229,0.0720166,0.0684602,nan,nan,nan,nan,nan,nan,nan,nan,nan,nan,nan,nan,nan,nan,nan,nan,nan,nan,nan,nan,nan,nan,nan,nan,nan,nan,nan,nan,nan,nan,nan,nan,nan,nan,nan,nan,nan,nan,nan,nan,nan,nan,nan,nan,nan,nan,nan,nan,nan,nan,nan,nan,nan,nan,nan,nan,nan,nan,nan,nan,nan,nan,nan,nan,nan,nan,nan,nan,nan,nan,nan,nan,nan,nan,nan,nan,nan,nan,nan,nan,nan,nan,nan,nan,nan,nan,nan,nan,nan,nan,nan,nan,nan,nan,nan,nan,nan,nan,nan,nan,nan,nan,nan,nan,nan,nan,nan,nan,nan,nan,nan,nan,nan,nan,nan,nan,nan,nan,nan,nan,nan
1.05879,0.80379,1.06879,1.06761,0.975456,0.90879,0.90879,0.894084,0.919504,0.852907,0.862361,0.83129,0.794504,0.806706,0.845632,0.825456,0.78379,0.80879,0.722426,0.629623,0.71879,0.688335,0.685105,0.53879,0.568049,0.52679,0.606158,0.523075,0.586567,0.549966,0.565932,0.535456,0.476647,0.450456,0.470554,0.442123,0.437956,0.431012,0.44629,0.392123,0.385456,0.380218,0.30679,0.291398,0.292123,0.269316,0.231012,0.263137,0.232703,0.230665,0.225456,0.16879,0.184715,0.148373,0.0837895,0.0796229,0.0780203,0.0869145,0.0587895,0.0754562,0.056158,0.0671229,0.0337895,0.0772106,0.0621229,0.0587896,0.0614211,0.0852601,0.0772106,0.0525395,0.0348765,0.0352601,0.0640527,0.087361,0.0817062,0.0619145,0.0587896,0.0730753,0.0587896,0.0445038,0.0587896,0.0365673,0.0337896,0.0621229,0.0741742,0.0654562,0.0421229,0.0546229,0.0504562,0.0802181,0.0721229,0.0671229,0.0487896,0.0587896,0.0587896,0.0810118,0.0921229,0.0724259,0.0815168,0.0976784,0.0400396,0.0695038,0.0619146,0.0766467,0.0860623,0.0395588,0.0462895,0.0837895,0.0754562,-0.0924925,-0.182877,-0.229262,-0.44121,-0.186449,-0.0368626,0.0321229,0.0587896,0.0451532,0.0462896,0.0337895,0.0337895,0.0212895,0.0387896,0.0318665,0.00878955,0.00878955,0.0287896,0.0212895,0.00878955,0.00878955,0.00878955,0.00878955,0.00878955,0.00878955,0.00878955,0.100456,0.17379,0.00878955,0.00878955,0.00878955,0.00878955,0.00878955,0.00878955,0.00878955,0.00878955,0.00878955,0.00878955,0.00878955,0.00878955,0.00878955,0.00878955,0.00878955,0.00878955,0.00878955,0.00878955,0.00878955,0.00878955,0.0277268,0.00878955,0.00878955,0.00878955,0.00878955,0.00878955,0.00878955,0.00878955,0.00878955,0.00878955,0.020443,0.0190064,0.0172785,-0.00787712,-0.00787712,-0.0412105,0.0194695,0.0251805,0.0304228,0.0334817,0.0317368,0.0127976,nan,nan,nan,nan,nan,nan,nan,nan,nan,nan,nan,nan,nan,nan,nan,nan,nan,nan,nan,nan,nan,nan,nan,nan,nan,nan,nan,nan,nan,nan,nan,nan,nan,nan,nan,nan,nan,nan,nan,nan,nan,nan,nan,nan,nan,nan,nan,nan,nan,nan,nan,nan,nan,nan,nan,nan,nan,nan,nan,nan,nan,nan,nan,nan,nan,nan,nan,nan,nan,nan,nan,nan,nan,nan,nan,nan,nan,nan,nan,nan,nan,nan,nan,nan,nan,nan,nan,nan,nan,nan,nan,nan,nan,nan,nan,nan,nan,nan,nan,nan,nan,nan,nan,nan,nan,nan,nan,nan,nan,nan,nan,nan,nan,nan,nan,nan,nan,nan,nan,nan,nan
1.03379,0.57879,0.525456,0.776971,0.879623,0.812956,0.866684,0.879378,0.92802,0.925456,0.86129,0.786062,0.664345,0.73379,0.776437,0.786567,0.787361,0.775456,0.716482,0.687956,0.753234,0.70679,0.644901,0.57754,0.593572,0.574415,0.556158,0.530665,0.555664,0.55379,0.520554,0.539559,0.542123,0.48379,0.490608,0.47129,0.426437,0.43379,0.43379,0.40879,0.347678,0.37879,0.34279,0.311731,0.28526,0.29004,0.261421,0.256012,0.21629,0.236567,0.21379,0.204244,0.152268,0.136062,0.0462895,0.0654562,0.0549434,0.0666843,0.179244,0.0626357,0.0724259,0.0476784,0.0671229,0.0337895,0.0712895,0.0529072,0.0854562,0.0312895,0.0195038,0.0681645,0.10254,0.0951532,0.0892243,0.0754562,0.0659324,0.0440837,0.0482632,0.0496986,0.0587895,0.0275396,0.0496986,0.0525395,0.0264366,0.0302181,0.0431645,0.0554562,0.0754562,0.0865673,0.0906077,0.0687895,0.0587896,0.0629562,0.0587896,0.0587896,0.0744146,0.0671229,0.0587896,0.0976784,0.0754562,0.0617307,0.0754562,0.0629562,0.070328,0.0365673,0.0379562,0.0787895,0.0802181,0.0476784,0.0802181,-0.066968,-0.195756,-0.49121,-0.46621,-0.225993,0.0421229,0.0421229,0.0187896,0.0171229,0.0360623,0.0254562,0.00878955,0.0237895,0.0254562,0.0150396,0.0337895,0.0187896,0.00878955,0.0137896,0.0178805,0.0178805,0.00878955,0.00878955,0.00878955,0.00878955,0.00878955,0.00878955,0.00878955,0.00878955,0.00878955,0.00878955,0.00878955,0.00878955,0.00878955,0.00878955,0.00878955,0.0199112,0.0156238,0.00878955,0.00878955,0.00878955,0.00878955,0.00878955,0.00878955,0.00878955,0.00878955,0.00878955,0.00878955,0.00878955,0.00878955,0.00878955,0.00878955,0.00878955,0.00878955,0.00878955,0.00878955,0.00878955,0.00929671,0.00595727,0.00878955,-0.0112105,-0.0067095,-0.00875428,-0.0100365,-0.00949008,-0.00648053,-0.00192468,0.000361374,-0.00770647,-0.0335561,nan,nan,nan,nan,nan,nan,nan,nan,nan,nan,nan,nan,nan,nan,nan,nan,nan,nan,nan,nan,nan,nan,nan,nan,nan,nan,nan,nan,nan,nan,nan,nan,nan,nan,nan,nan,nan,nan,nan,nan,nan,nan,nan,nan,nan,nan,nan,nan,nan,nan,nan,nan,nan,nan,nan,nan,nan,nan,nan,nan,nan,nan,nan,nan,nan,nan,nan,nan,nan,nan,nan,nan,nan,nan,nan,nan,nan,nan,nan,nan,nan,nan,nan,nan,nan,nan,nan,nan,nan,nan,nan,nan,nan,nan,nan,nan,nan,nan,nan,nan,nan,nan,nan,nan,nan,nan,nan,nan,nan,nan,nan,nan,nan,nan,nan,nan,nan,nan,nan,nan,nan
1.00879,1.00879,0.969901,0.97129,0.965932,0.963335,0.94629,0.930218,0.885713,0.904943,0.855848,0.812956,0.825456,0.774699,0.735713,0.78526,0.75254,0.75879,0.78379,0.762956,0.723075,0.684715,0.70879,0.669504,0.599966,0.62379,0.586062,0.576647,0.55879,0.55129,0.642123,1.20879,1.50302,0.685456,0.455218,0.482599,0.545746,0.54379,0.39629,0.392123,0.317123,0.349699,0.34004,0.29379,0.294504,0.247025,0.282123,0.24288,0.20879,0.21117,0.186915,0.18879,0.157065,0.12129,0.0619146,0.0611705,0.0640527,0.0954562,0.479757,0.752692,0.0525395,0.0560118,0.04792,0.0676131,0.0492657,0.0352601,0.0854562,0.0780203,0.0906077,0.0951532,0.0817062,0.0671229,0.0798422,0.0637896,0.0472511,0.0369145,0.0546229,0.0379562,0.0525395,0.0154562,0.0337895,0.0382013,0.0558484,0.0887896,0.0699007,0.0678805,0.0754562,0.0554562,0.0659324,0.0421229,0.053234,0.0546229,0.0787895,0.0737895,0.0837895,0.0650395,0.0504562,0.053234,0.0621229,0.0646719,0.0650395,0.0521229,0.0724259,0.0621229,0.0643451,0.0337895,0.0470248,0.0496986,0.0496986,-0.0582836,-0.24121,-0.44121,-0.44121,-0.21921,-0.00371045,0.0212895,0.0360623,0.0224259,0.0187896,0.0129562,0.0266467,0.0137895,0.00878955,0.0254562,0.020328,0.0159324,0.020328,0.0199007,0.00878955,0.0187896,0.0302181,0.0287896,0.00878955,0.00878955,0.00878955,0.00878955,0.00878955,0.00878955,0.0147538,0.00878955,0.00878955,0.00878955,0.00878955,0.0107995,0.0110094,0.00878955,0.00878955,0.00878955,0.00878955,0.00878955,0.00878955,0.00878955,0.00878955,0.00878955,0.00878955,0.00878955,0.00878955,0.00878955,0.00878955,0.00878955,0.00878955,0.00878955,0.00878955,0.00878955,0.00878955,0.00878955,0.00878955,0.00878955,-0.0162105,-0.0412105,-0.00888828,-0.00873461,-0.00909648,-0.0116576,-0.0157389,-0.0203201,-0.0275372,-0.0383051,nan,nan,nan,nan,nan,nan,nan,nan,nan,nan,nan,nan,nan,nan,nan,nan,nan,nan,nan,nan,nan,nan,nan,nan,nan,nan,nan,nan,nan,nan,nan,nan,nan,nan,nan,nan,nan,nan,nan,nan,nan,nan,nan,nan,nan,nan,nan,nan,nan,nan,nan,nan,nan,nan,nan,nan,nan,nan,nan,nan,nan,nan,nan,nan,nan,nan,nan,nan,nan,nan,nan,nan,nan,nan,nan,nan,nan,nan,nan,nan,nan,nan,nan,nan,nan,nan,nan,nan,nan,nan,nan,nan,nan,nan,nan,nan,nan,nan,nan,nan,nan,nan,nan,nan,nan,nan,nan,nan,nan,nan,nan,nan,nan,nan,nan,nan,nan,nan,nan,nan,nan,nan
0.964345,1.01712,0.972426,0.990608,0.90879,0.937361,0.950895,0.895456,0.888201,0.87129,0.85879,0.77129,0.79879,0.797678,0.80879,0.752907,0.755665,0.75879,0.75879,0.704244,0.678234,0.65879,0.661567,0.652539,0.598263,0.60379,0.598263,0.590608,0.53379,0.553526,0.803526,1.43956,1.6805,0.50879,0.400456,0.905218,1.39828,1.40696,0.393165,0.394504,0.40879,0.302907,0.334715,0.263137,0.255456,0.267123,0.223495,0.220153,0.195153,0.181012,0.19004,0.187361,0.10879,0.137361,0.10129,0.0445038,0.0529072,0.0754562,0.203951,0.73705,0.416684,0.0699007,0.0712895,0.0712895,0.0687895,0.0887896,0.0659324,0.100895,0.0746986,0.0587895,0.074579,0.0705543,0.0360623,0.0476784,0.0525395,0.0318665,0.0437896,0.0146719,0.0365673,0.0554562,0.0643451,0.0643451,0.0587896,0.0587895,0.056158,0.0654562,0.0395588,0.0360623,0.0296229,0.0434049,0.0546229,0.0470248,0.0516467,0.0552181,0.0516467,0.0510972,0.0587895,0.062361,0.0587896,0.0587896,0.0815168,0.0775395,0.0802181,0.0587896,0.0650395,0.0737896,0.0730753,0.0587895,0.0587896,-0.0791415,-0.21621,-0.44121,-0.46121,-0.212044,-0.0370438,0.0302181,0.0287896,0.0337895,0.0287896,0.0287896,0.0302181,0.037361,0.0337895,0.0462896,0.00878955,0.0387896,0.0421229,0.0587896,0.0587896,0.0587896,0.0327163,0.0587896,0.0421229,0.0171229,0.00878955,0.00878955,0.00878955,0.00878955,0.00878955,0.00878955,0.00878955,0.00878955,0.00886293,0.00878955,0.00878955,0.00878955,0.00878955,0.00878955,0.00878955,0.00878955,0.00878955,0.00878955,0.00878955,0.00878955,0.00878955,0.00878955,0.00878955,0.00878955,0.00878955,0.00878955,0.00878955,0.00878955,0.00878955,0.00878955,0.00878955,0.00878955,0.00739012,0.00447242,0.000536865,-0.00229663,-0.00239811,2.19637e-05,0.0027627,0.00386768,0.00338581,0.00220118,-0.00125461,nan,nan,nan,nan,nan,nan,nan,nan,nan,nan,nan,nan,nan,nan,nan,nan,nan,nan,nan,nan,nan,nan,nan,nan,nan,nan,nan,nan,nan,nan,nan,nan,nan,nan,nan,nan,nan,nan,nan,nan,nan,nan,nan,nan,nan,nan,nan,nan,nan,nan,nan,nan,nan,nan,nan,nan,nan,nan,nan,nan,nan,nan,nan,nan,nan,nan,nan,nan,nan,nan,nan,nan,nan,nan,nan,nan,nan,nan,nan,nan,nan,nan,nan,nan,nan,nan,nan,nan,nan,nan,nan,nan,nan,nan,nan,nan,nan,nan,nan,nan,nan,nan,nan,nan,nan,nan,nan,nan,nan,nan,nan,nan,nan,nan,nan,nan,nan,nan,nan,nan,nan,nan,nan
0.969833,0.98379,1.00879,0.975456,0.95879,0.862956,0.862123,0.832319,0.842123,0.815456,0.84879,0.85879,0.786567,0.737361,0.762956,0.75879,0.767123,0.736062,0.72379,0.742123,0.67129,0.692123,0.65879,0.669134,0.60879,0.593405,0.57879,0.562636,0.720554,0.805456,1.01565,1.35502,1.33498,0.469504,1.07879,1.22644,1.44795,1.30879,0.37754,0.389559,0.40879,0.290608,0.326437,0.30254,0.253526,0.244504,0.273075,0.225456,0.206012,0.182599,0.21879,0.19879,0.053234,0.056158,0.0643451,0.0310118,0.0354562,0.056158,0.242123,0.428144,0.23629,0.0542441,0.0754562,0.0664819,0.0687896,0.0862895,0.0857126,0.0635514,0.0954562,0.0712896,0.0462896,0.0400395,0.063335,0.0195038,0.0212895,0.0287896,0.0476784,0.062361,0.0587896,0.0730753,0.0587896,0.0254562,0.0629562,0.0525395,0.0516467,0.0510972,0.0409324,0.0337896,0.0445038,0.0837895,0.0621229,0.0699007,0.0643451,0.062361,0.070328,0.0934049,0.0837895,0.0945038,0.0962895,0.0810118,0.0921229,0.0516467,0.0775395,0.13379,0.0987896,0.0737896,0.125456,0.0712896,0.0337895,-0.0963829,-0.384068,-0.44121,-0.44746,-0.227877,-0.0139377,0.0445038,0.0445038,0.0275395,0.0241742,0.0302181,0.00878955,0.0462896,0.0421229,0.0365673,0.0462896,0.0587896,0.0402607,0.0587896,0.0587896,0.0587896,0.0587896,0.0387896,0.0337895,0.00878955,0.00878955,0.00878955,0.00878955,0.00878955,0.00878955,0.00878955,0.00878955,0.00878955,0.00878955,0.00878955,0.00878955,0.00878955,0.00878955,0.00878955,0.00878955,0.00878955,0.00878955,0.00878955,0.00878955,0.00878955,0.00878955,0.00878955,0.00878955,0.00878955,0.00878955,0.00878955,0.00878955,0.00878955,0.00878955,0.00878955,0.00878955,0.00869937,0.00878955,0.00878955,0.00878955,0.00878955,0.00212807,0.00878955,0.00878955,0.00638933,0.00550965,0.0021226,-0.00550294,-0.0412105,nan,nan,nan,nan,nan,nan,nan,nan,nan,nan,nan,nan,nan,nan,nan,nan,nan,nan,nan,nan,nan,nan,nan,nan,nan,nan,nan,nan,nan,nan,nan,nan,nan,nan,nan,nan,nan,nan,nan,nan,nan,nan,nan,nan,nan,nan,nan,nan,nan,nan,nan,nan,nan,nan,nan,nan,nan,nan,nan,nan,nan,nan,nan,nan,nan,nan,nan,nan,nan,nan,nan,nan,nan,nan,nan,nan,nan,nan,nan,nan,nan,nan,nan,nan,nan,nan,nan,nan,nan,nan,nan,nan,nan,nan,nan,nan,nan,nan,nan,nan,nan,nan,nan,nan,nan,nan,nan,nan,nan,nan,nan,nan,nan,nan,nan,nan,nan,nan,nan,nan,nan,nan
0.95879,0.95879,0.95879,0.942123,0.92379,0.90879,0.831012,0.861731,0.787956,0.85879,0.82754,0.82754,0.80879,0.770328,0.748263,0.692123,0.71379,0.694504,0.71379,0.69629,0.642123,0.75879,0.719901,0.666684,0.652123,0.620328,1.07835,0.960514,0.98479,1.01593,1.24644,1.53982,1.38562,1.0414,1.28606,1.341,1.40231,0.686171,0.363335,0.381012,0.38379,0.294504,0.290734,0.293272,0.25879,0.22129,0.210713,0.22629,0.178355,0.167123,0.203234,0.19379,0.170328,0.138201,0.106616,0.0931645,0.0787895,0.0974259,0.078234,0.132599,0.0695038,0.082319,0.0521229,0.0650395,0.0906077,0.0693159,0.0654562,0.062361,0.070328,0.0445038,0.0234954,0.0269714,0.0354562,0.0437896,0.0621229,0.0754562,0.0587895,0.0671229,0.0671229,0.0421229,0.0766467,0.0664819,0.0504562,0.037361,0.0587896,0.0406077,0.0357126,0.0437896,0.0476784,0.0737896,0.0687895,0.0587896,0.0516467,0.0837895,0.0754562,0.0699007,0.0810118,0.0787895,0.0837895,0.0754562,0.0837895,0.0887896,0.0810118,0.0587895,0.0659324,0.00878955,0.0421229,0.0337895,0.0337895,-0.0992105,-0.49121,-0.48121,-0.45371,-0.19121,-0.0139377,0.0337895,0.0275395,0.0315168,0.0337895,0.0421229,0.0462896,0.0400396,0.00878955,0.0254562,0.0587896,0.0587896,0.0462896,0.0587896,0.0254562,0.00878955,0.00878955,0.00878955,0.00878955,0.00878955,0.00878955,0.00878955,0.00878955,0.00878955,0.00878955,0.00878955,0.00878955,0.00878955,0.00878955,0.00878955,0.00878955,0.00878955,0.00878955,0.00878955,0.00878955,0.00878955,0.00878955,0.00878955,0.00878955,0.00878955,0.00878955,0.00878955,0.00878955,0.00878955,0.00878955,0.00878955,0.00878955,0.00878955,0.00878955,0.00878955,0.00878955,0.00878955,0.00878955,0.00878955,0.0062179,0.00878955,0.00878955,0.00878955,-0.000139789,-0.00559632,-0.0195988,-0.0448633,-0.0746556,-0.0912105,nan,nan,nan,nan,nan,nan,nan,nan,nan,nan,nan,nan,nan,nan,nan,nan,nan,nan,nan,nan,nan,nan,nan,nan,nan,nan,nan,nan,nan,nan,nan,nan,nan,nan,nan,nan,nan,nan,nan,nan,nan,nan,nan,nan,nan,nan,nan,nan,nan,nan,nan,nan,nan,nan,nan,nan,nan,nan,nan,nan,nan,nan,nan,nan,nan,nan,nan,nan,nan,nan,nan,nan,nan,nan,nan,nan,nan,nan,nan,nan,nan,nan,nan,nan,nan,nan,nan,nan,nan,nan,nan,nan,nan,nan,nan,nan,nan,nan,nan,nan,nan,nan,nan,nan,nan,nan,nan,nan,nan,nan,nan,nan,nan,nan,nan,nan,nan,nan,nan,nan,nan,nan
