0.261542,0.196714,0.222629,0.178929,0.171047,0.153283,0.128463,0.137459,0.154927,0.17707,0.29049,0.312714,0.315327,0.338714,0.426855,0.302046,0.28139,0.22756,0.171422,0.157655,0.121293,0.111246,0.135365,0.116217,0.133515,0.0982412,0.121592,0.116718,0.140267,0.138443,0.138871,0.1406,0.141224,0.190111,0.219257,0.189643,0.184409,0.166078,0.158257,0.139956,0.163023,0.130519,0.192049,0.159781,0.161018,0.160312,0.159457,0.160584,0.153733,0.155063,0.149334,0.130877,0.130379,0.110383,0.117195,0.0975315,0.0821624,0.0638688,0.0728777,0.0594014,0.0528438,0.0496758,0.039165,0.0264362,0.0201046,0.0200025,0.0235318,0.021676,0.0278921,0.0258764,0.0465367,0.0385668,0.0474365,0.031967,0.0278518,0.0307338,0.0357047,0.0346316,0.0288641,0.0312396,0.0376107,0.0357293,0.0341802,0.0425812,0.057006,0.0591302,0.0466271,0.0440679,0.0450519,0.0472498,0.0504627,0.0703067,0.0617421,0.0611925,0.0593973,0.058264,0.0566433,0.0530996,0.0777778,0.155245,0.324661,0.739464,1,1,1,1,1,1,1,1,0.694186,1,1,1,1,1,0.743382,0.360231,0.186024,0.0561688,0.0354132,0.0354477,0.0327364,0.030955,0.035352,0.0388273,0.0393398,0.0348235,0.0417888,0.0458298,0.0567693,0.0406021,0.0420361,0.0436488,0.0400634,0.0375214,0.0348593,0.0462951,0.0414714,0.0555497,0.0492501,0.0577018,0.049002,0.0395229,0.0516643,0.0454437,0.0450628,0.0484514,0.0387655,0.0401543,0.0510615,0.049091,0.0467679,0.0464526,0.0434753,0.0462147,0.0468151,0.0537854,0.0553416,0.0469812,0.0405112,0.0453475,0.0466748,0.0546649,0.0694287,0.0789094,0.137117,0.129612,0.12916,0.127204,0.121564,0.100275,0.0975886,0.118072,0.115821,0.158483,0.185308,0.231203,1,nan,nan,nan,nan,nan,nan,nan,nan,nan,nan,nan,nan,nan,nan,nan,nan,nan,nan,nan,nan,nan,nan,nan,nan,nan,nan,nan,nan,nan,nan,nan,nan,nan,nan,nan,nan,nan,nan,nan,nan,nan,nan,nan,nan,nan,nan,nan,nan,nan,nan,nan,nan,nan,nan,nan,nan,nan,nan,nan,nan,nan,nan,nan,nan,nan,nan,nan,nan,nan,nan,nan,nan,nan,nan,nan,nan,nan,nan,nan,nan,nan,nan,nan,nan,nan,nan,nan,nan,nan,nan,nan,nan,nan,nan,nan,nan,nan,nan,nan,nan,nan,nan,nan,nan,nan,nan,nan,nan,nan,nan,nan,nan,nan,nan,nan,nan,nan,nan,nan,nan,nan
0.213442,0.197989,0.177708,0.182922,0.158293,0.164025,0.137723,0.137023,0.157784,0.211595,0.302554,0.389766,0.527176,0.520584,0.443467,0.47716,0.354377,0.274778,0.15388,0.156898,0.129564,0.124996,0.136706,0.129328,0.107982,0.0994436,0.127308,0.104064,0.16185,0.175174,0.153089,0.165513,0.16505,0.146269,0.19458,0.172142,0.229511,0.141735,0.173913,0.173534,0.16382,0.179919,0.151261,0.155991,0.156332,0.143462,0.157962,0.145803,0.130225,0.128569,0.126634,0.121356,0.108219,0.114139,0.100576,0.0927335,0.0832947,0.074522,0.0568438,0.055724,0.0488552,0.0436461,0.0373228,0.0351441,0.0233444,0.0276612,0.0239641,0.0226924,0.0240029,0.0294798,0.0314885,0.0418727,0.0309555,0.0366885,0.0336415,0.0237366,0.027257,0.0277823,0.0357259,0.0249528,0.0223715,0.0257795,0.029958,0.0371848,0.0349203,0.0472043,0.0454879,0.0517414,0.0548537,0.0470753,0.0569371,0.0580598,0.0622972,0.0746906,0.060208,0.0517689,0.0606473,0.0590518,0.0643019,0.130658,0.252787,0.673418,1,1,1,1,1,1,1,1,1,1,1,1,1,1,0.710868,0.322131,0.157666,0.0578988,0.0308473,0.0318117,0.0323149,0.0355434,0.0379,0.0374733,0.0369879,0.0293127,0.0327698,0.0365797,0.0339119,0.0344865,0.0294996,0.0352785,0.033292,0.0275017,0.0346267,0.0312959,0.0342285,0.0279773,0.0275619,0.0255429,0.0219516,0.0267423,0.0293159,0.0299794,0.0266207,0.0339807,0.0347352,0.0331123,0.0339074,0.0425509,0.0309973,0.0401045,0.0379293,0.0345877,0.0363232,0.0332831,0.0369691,0.0367975,0.036314,0.031863,0.0258849,0.0281121,0.0366219,0.057191,0.0668326,0.111007,0.135412,0.143554,0.0858106,0.0809004,0.0606097,0.0840203,0.115391,0.114578,0.101599,0.132266,0.068385,nan,nan,nan,nan,nan,nan,nan,nan,nan,nan,nan,nan,nan,nan,nan,nan,nan,nan,nan,nan,nan,nan,nan,nan,nan,nan,nan,nan,nan,nan,nan,nan,nan,nan,nan,nan,nan,nan,nan,nan,nan,nan,nan,nan,nan,nan,nan,nan,nan,nan,nan,nan,nan,nan,nan,nan,nan,nan,nan,nan,nan,nan,nan,nan,nan,nan,nan,nan,nan,nan,nan,nan,nan,nan,nan,nan,nan,nan,nan,nan,nan,nan,nan,nan,nan,nan,nan,nan,nan,nan,nan,nan,nan,nan,nan,nan,nan,nan,nan,nan,nan,nan,nan,nan,nan,nan,nan,nan,nan,nan,nan,nan,nan,nan,nan,nan,nan,nan,nan,nan,nan
0.188031,0.213351,0.194616,0.159993,0.138016,0.107684,0.129332,0.146028,0.179098,0.251796,0.313789,0.573977,0.552702,0.461768,0.519867,0.405372,0.355749,0.295857,0.205659,0.140665,0.164047,0.1389,0.144409,0.109938,0.121973,0.115014,0.100029,0.109549,0.159718,0.162551,0.187141,0.144112,0.20062,0.14541,0.19932,0.19032,0.15491,0.163267,0.15035,0.154506,0.149945,0.165052,0.157298,0.192642,0.135371,0.158352,0.14017,0.165334,0.150547,0.136228,0.143999,0.108784,0.0997551,0.116342,0.0807372,0.0810371,0.0854424,0.0733251,0.0548234,0.0665563,0.0543945,0.0549683,0.0506394,0.0495425,0.0272065,0.0305622,0.0275744,0.0206312,0.0252448,0.0269642,0.0327169,0.0327037,0.0373829,0.0305415,0.0338569,0.0303478,0.029977,0.0331174,0.0268657,0.0231456,0.0266657,0.0259841,0.0289132,0.030195,0.0375683,0.0366838,0.0422178,0.041588,0.0425968,0.0443473,0.0516235,0.0584798,0.0606073,0.0501614,0.0490666,0.0503526,0.0509274,0.038616,0.0550381,0.11228,0.211298,0.615977,0.813723,1,1,1,1,0.886045,1,1,1,1,1,1,1,0.770575,0.685492,0.291464,0.147228,0.0462768,0.0243468,0.0226279,0.0221594,0.0199787,0.0212305,0.0264381,0.0365017,0.0247067,0.0344815,0.0298094,0.030644,0.0310543,0.0253031,0.0272943,0.0262656,0.0212266,0.0215767,0.0219267,0.0187922,0.0158902,0.017246,0.0219859,0.0220621,0.0148281,0.014612,0.0176008,0.0234796,0.0222534,0.0285376,0.0241893,0.0236169,0.0273384,0.0199381,0.0237391,0.0216771,0.0215892,0.0192489,0.0214048,0.0200278,0.0278167,0.0273477,0.0294374,0.0275887,0.0286076,0.0361133,0.0366096,0.0411668,0.0459518,0.0322213,0.0374954,0.0413535,0.045502,0.0413768,0.0149637,0.0441794,0.0210853,0.0346875,0.0499153,1,nan,nan,nan,nan,nan,nan,nan,nan,nan,nan,nan,nan,nan,nan,nan,nan,nan,nan,nan,nan,nan,nan,nan,nan,nan,nan,nan,nan,nan,nan,nan,nan,nan,nan,nan,nan,nan,nan,nan,nan,nan,nan,nan,nan,nan,nan,nan,nan,nan,nan,nan,nan,nan,nan,nan,nan,nan,nan,nan,nan,nan,nan,nan,nan,nan,nan,nan,nan,nan,nan,nan,nan,nan,nan,nan,nan,nan,nan,nan,nan,nan,nan,nan,nan,nan,nan,nan,nan,nan,nan,nan,nan,nan,nan,nan,nan,nan,nan,nan,nan,nan,nan,nan,nan,nan,nan,nan,nan,nan,nan,nan,nan,nan,nan,nan,nan,nan,nan,nan,nan,nan
0.212175,0.22018,0.199365,0.187075,0.159567,0.188552,0.116871,0.155521,0.181213,0.290009,0.446168,0.450923,0.59362,1,1,1,0.344301,0.302133,0.284507,0.222426,0.191921,0.171551,0.164655,0.147581,0.133139,0.132021,0.146721,0.151066,0.164364,0.180485,0.153801,0.17877,0.162707,0.162111,0.189346,0.162694,0.193131,0.171243,0.156532,0.218544,0.17136,0.173238,0.186399,0.154227,0.131276,0.16024,0.148035,0.148431,0.145313,0.142387,0.0978553,0.111586,0.0801057,0.0949392,0.0815481,0.0619059,0.0663105,0.0570775,0.0558789,0.0550056,0.0449907,0.0343563,0.043693,0.0390656,0.0383025,0.022192,0.0307101,0.0278399,0.0240094,0.0341798,0.0310653,0.0342171,0.0451146,0.0307826,0.043169,0.02351,0.023735,0.0253175,0.0270246,0.0325104,0.0305862,0.0225689,0.0260559,0.0328639,0.0334403,0.0305776,0.0294364,0.0307091,0.0352198,0.040554,0.0351022,0.0308503,0.0348988,0.0337737,0.036808,0.0351066,0.0345396,0.0270474,0.0389677,0.0781701,0.174781,0.467915,0.674423,0.820112,1,1,1,0.846714,0.87455,1,0.70246,1,1,1,0.81531,0.707948,0.588224,0.243392,0.117817,0.0434877,0.0198036,0.0136739,0.0159417,0.026327,0.0286409,0.0232152,0.0269642,0.0328861,0.0244175,0.0207135,0.0266848,0.0215428,0.0221153,0.0206133,0.0225369,0.0224721,0.0194791,0.028209,0.0203699,0.0201144,0.0164656,0.0157037,0.0184884,0.0190497,0.0151865,0.0155775,0.0150983,0.0217148,0.0211895,0.0265884,0.0191129,0.0208214,0.0202461,0.0223923,0.0212437,0.0201641,0.0195331,0.0205516,0.0266634,0.0243739,0.0304031,0.0351239,0.0379899,0.0421123,0.0482932,0.0373247,0.0354354,0.0433012,0.0336658,0.0370476,0.0261857,0.0175873,0.0157122,0.0179346,0.0129802,0.0114625,0.0160755,0.0201462,0.00515561,nan,nan,nan,nan,nan,nan,nan,nan,nan,nan,nan,nan,nan,nan,nan,nan,nan,nan,nan,nan,nan,nan,nan,nan,nan,nan,nan,nan,nan,nan,nan,nan,nan,nan,nan,nan,nan,nan,nan,nan,nan,nan,nan,nan,nan,nan,nan,nan,nan,nan,nan,nan,nan,nan,nan,nan,nan,nan,nan,nan,nan,nan,nan,nan,nan,nan,nan,nan,nan,nan,nan,nan,nan,nan,nan,nan,nan,nan,nan,nan,nan,nan,nan,nan,nan,nan,nan,nan,nan,nan,nan,nan,nan,nan,nan,nan,nan,nan,nan,nan,nan,nan,nan,nan,nan,nan,nan,nan,nan,nan,nan,nan,nan,nan,nan,nan,nan,nan,nan,nan,nan
0.225332,0.242291,0.219323,0.227768,0.181233,0.178998,0.140657,0.1263,0.170818,0.195155,0.485297,0.47971,1,1,1,1,1,0.385668,0.314131,0.212807,0.221629,0.19805,0.147481,0.170624,0.194954,0.12937,0.170533,0.15927,0.135651,0.193468,0.175485,0.194924,0.169889,0.194614,0.159424,0.152154,0.185302,0.174477,0.23694,0.205492,0.202253,0.188246,0.184417,0.205684,0.170965,0.169516,0.147703,0.162192,0.123225,0.114215,0.0959501,0.0888236,0.0843331,0.0845981,0.0636126,0.059443,0.052964,0.0636918,0.0485168,0.0412678,0.0396002,0.0352214,0.0556355,0.035683,0.0337986,0.0348459,0.0334979,0.0289871,0.0361532,0.0298186,0.0290121,0.0305597,0.0384761,0.0437894,0.044352,0.0256112,0.0301179,0.029663,0.0253956,0.0252697,0.0284751,0.0328406,0.0292525,0.0321534,0.0290603,0.0359975,0.0374492,0.0372135,0.040948,0.0388455,0.0333258,0.0361203,0.034701,0.0329344,0.0381722,0.0363284,0.0280748,0.0258761,0.0384915,0.0657246,0.118547,0.336308,0.556958,0.744493,0.756352,1,1,1,0.815416,0.761341,0.786838,0.880802,0.771746,1,1,0.664836,0.511095,0.206615,0.103905,0.0372815,0.0172425,0.0259499,0.021104,0.0226367,0.0282755,0.0274557,0.0321711,0.026999,0.029322,0.030262,0.0235764,0.0252606,0.0256395,0.0289538,0.0338129,0.0248283,0.0234852,0.0321054,0.0314184,0.0277536,0.0278601,0.0260896,0.0305905,0.0290074,0.0301495,0.0328914,0.0292542,0.0316933,0.0386595,0.0383345,0.0383133,0.0338813,0.0351904,0.0353037,0.0327656,0.0268847,0.0256295,0.0301304,0.0318899,0.0289438,0.0408694,0.0421972,0.0471801,0.0494707,0.0502234,0.0438394,0.0462546,0.0476456,0.0435547,0.0372483,0.0248986,0.0195749,0.0204458,0.015159,0.0115716,0.00421604,0.00531048,0.00109352,0.000698935,nan,nan,nan,nan,nan,nan,nan,nan,nan,nan,nan,nan,nan,nan,nan,nan,nan,nan,nan,nan,nan,nan,nan,nan,nan,nan,nan,nan,nan,nan,nan,nan,nan,nan,nan,nan,nan,nan,nan,nan,nan,nan,nan,nan,nan,nan,nan,nan,nan,nan,nan,nan,nan,nan,nan,nan,nan,nan,nan,nan,nan,nan,nan,nan,nan,nan,nan,nan,nan,nan,nan,nan,nan,nan,nan,nan,nan,nan,nan,nan,nan,nan,nan,nan,nan,nan,nan,nan,nan,nan,nan,nan,nan,nan,nan,nan,nan,nan,nan,nan,nan,nan,nan,nan,nan,nan,nan,nan,nan,nan,nan,nan,nan,nan,nan,nan,nan,nan,nan,nan,nan
0.258452,0.277792,0.304229,0.276927,0.277153,0.230471,0.164526,0.129817,0.143037,0.298932,0.322164,0.381213,1,1,1,1,1,0.391273,0.346553,0.309931,0.215586,0.193548,0.152528,0.151309,0.153702,0.148609,0.187496,0.154851,0.179389,0.161448,0.149002,0.167461,0.161332,0.143987,0.143982,0.182577,0.214779,0.184282,0.226411,0.180531,0.203433,0.201154,0.186777,0.182221,0.180599,0.17386,0.138386,0.151785,0.136208,0.159304,0.102692,0.0828191,0.0691564,0.076782,0.0666773,0.0691646,0.0662532,0.0739405,0.0826074,0.0633947,0.0700423,0.0472375,0.04313,0.0396152,0.0320084,0.0348041,0.029652,0.0422444,0.0315397,0.0415477,0.033321,0.0541385,0.0569553,0.0503628,0.0382576,0.0431466,0.0363645,0.0315061,0.0355174,0.03731,0.0283101,0.0252977,0.0312967,0.034619,0.0344227,0.0299753,0.0265492,0.0338539,0.029278,0.0325613,0.0315458,0.0309863,0.0317229,0.0244574,0.0272451,0.0273697,0.0232477,0.0268506,0.0358815,0.0564013,0.106393,0.283316,0.398586,0.52999,0.687585,0.70083,0.755747,0.692716,1,0.884589,0.83711,0.827251,1,1,0.712018,0.597647,0.439999,0.157674,0.0873523,0.0351237,0.0215368,0.0238745,0.0296202,0.0289843,0.0299895,0.028908,0.0382267,0.0282946,0.0315893,0.0317489,0.0400692,0.0302516,0.0381674,0.0356455,0.0321438,0.0372616,0.0371274,0.0405388,0.040462,0.0405241,0.039269,0.0387194,0.0396269,0.0423232,0.0412418,0.0385143,0.0427361,0.0378116,0.0382936,0.0428903,0.0432475,0.0455371,0.0395127,0.0392237,0.0435125,0.0399414,0.0395629,0.0425075,0.0455478,0.0399768,0.0430311,0.0412972,0.0397702,0.0432212,0.0460816,0.0515688,0.0506141,0.0494797,0.0421151,0.0385345,0.0360678,0.0230187,0.0154934,0.00973257,0.00580628,0.00373357,0.00354804,0.000237049,5.00638e-05,nan,nan,nan,nan,nan,nan,nan,nan,nan,nan,nan,nan,nan,nan,nan,nan,nan,nan,nan,nan,nan,nan,nan,nan,nan,nan,nan,nan,nan,nan,nan,nan,nan,nan,nan,nan,nan,nan,nan,nan,nan,nan,nan,nan,nan,nan,nan,nan,nan,nan,nan,nan,nan,nan,nan,nan,nan,nan,nan,nan,nan,nan,nan,nan,nan,nan,nan,nan,nan,nan,nan,nan,nan,nan,nan,nan,nan,nan,nan,nan,nan,nan,nan,nan,nan,nan,nan,nan,nan,nan,nan,nan,nan,nan,nan,nan,nan,nan,nan,nan,nan,nan,nan,nan,nan,nan,nan,nan,nan,nan,nan,nan,nan,nan,nan,nan,nan,nan,nan,nan,nan
0.28851,0.284925,0.369751,0.253617,0.293103,0.253221,0.197906,0.130001,0.132659,0.156922,0.307243,0.32645,1,1,1,1,0.483955,0.339312,0.385994,0.265776,0.256444,0.225827,0.192751,0.170261,0.17736,0.155056,0.168919,0.140212,0.144064,0.142121,0.177069,0.139934,0.125699,0.159597,0.140705,0.153283,0.147532,0.22577,0.245409,0.18818,0.21289,0.213479,0.237222,0.20488,0.203271,0.149771,0.183806,0.170668,0.125125,0.114034,0.11448,0.0799671,0.0840917,0.0809507,0.0706815,0.0608762,0.0552401,0.0748786,0.0590493,0.0819181,0.0673834,0.0655033,0.0454341,0.0391874,0.0268925,0.0433458,0.0400552,0.033388,0.0426093,0.0326425,0.0415981,0.0435262,0.0372816,0.0406989,0.04416,0.0442955,0.0371477,0.0436751,0.0309231,0.0288666,0.0333083,0.0308769,0.0277839,0.0269881,0.0309842,0.0299619,0.0343139,0.0297052,0.0252102,0.0312843,0.0247261,0.0233983,0.0293275,0.0203674,0.0294244,0.0210375,0.0225201,0.0292296,0.0358017,0.0619562,0.107354,0.199957,0.340481,0.40454,0.536586,0.608682,1,0.75086,0.733037,0.840825,1,1,0.805382,0.722495,0.562557,0.542278,0.389912,0.136814,0.0946051,0.0391036,0.0304149,0.0393269,0.0335531,0.0359049,0.0422343,0.038624,0.0371497,0.0380828,0.0424624,0.0449114,0.0359418,0.0431998,0.0418916,0.043479,0.0363677,0.0378503,0.0405564,0.0381071,0.0406773,0.0382734,0.0411948,0.0398081,0.04018,0.0418557,0.0437792,0.0393479,0.0412561,0.0422453,0.0404751,0.0483549,0.038874,0.0421901,0.0446275,0.0416433,0.0390662,0.0400874,0.041245,0.0380368,0.0382453,0.0387201,0.0383225,0.0387274,0.0396885,0.0429874,0.0536084,0.0530364,0.0511451,0.0482346,0.0470674,0.0326546,0.0397895,0.0233769,0.0156406,0.00961786,0.00392794,0.00438644,0.000237049,8.2122e-05,1.09937e-05,nan,nan,nan,nan,nan,nan,nan,nan,nan,nan,nan,nan,nan,nan,nan,nan,nan,nan,nan,nan,nan,nan,nan,nan,nan,nan,nan,nan,nan,nan,nan,nan,nan,nan,nan,nan,nan,nan,nan,nan,nan,nan,nan,nan,nan,nan,nan,nan,nan,nan,nan,nan,nan,nan,nan,nan,nan,nan,nan,nan,nan,nan,nan,nan,nan,nan,nan,nan,nan,nan,nan,nan,nan,nan,nan,nan,nan,nan,nan,nan,nan,nan,nan,nan,nan,nan,nan,nan,nan,nan,nan,nan,nan,nan,nan,nan,nan,nan,nan,nan,nan,nan,nan,nan,nan,nan,nan,nan,nan,nan,nan,nan,nan,nan,nan,nan,nan,nan,nan,nan,nan
0.288176,0.278914,0.337435,0.343207,0.302754,0.240165,0.190616,0.158632,0.159682,0.138694,0.247766,0.253763,0.294362,1,1,1,0.459341,0.429809,0.358186,0.245014,0.265612,0.193306,0.186592,0.161448,0.173465,0.194154,0.156973,0.18537,0.170428,0.135901,0.141491,0.11962,0.159209,0.184468,0.193137,0.171926,0.171635,0.221757,0.190683,0.185938,0.222486,0.200555,0.189837,0.217772,0.239879,0.260157,0.195529,0.182975,0.141673,0.1194,0.116754,0.0840032,0.0904275,0.0618345,0.081108,0.0694035,0.0540718,0.0645145,0.0804678,0.0835145,0.0559137,0.0510334,0.0343598,0.0367315,0.0462962,0.0364554,0.0369386,0.0398048,0.0406458,0.0304857,0.0426702,0.0547579,0.0582421,0.0519286,0.0519015,0.0359179,0.0409675,0.0356064,0.0317712,0.0293798,0.0429742,0.0298838,0.0332016,0.0315702,0.034868,0.0323954,0.0349123,0.0389248,0.036629,0.0336563,0.0324994,0.0336892,0.0311124,0.0329921,0.0348462,0.0302216,0.0330413,0.0320953,0.0411974,0.0521102,0.108118,0.134461,0.30831,0.356581,0.432641,0.472743,0.629089,0.676063,0.662666,1,1,1,1,0.660336,0.567035,0.529028,0.313915,0.155608,0.0995761,0.0430533,0.0448762,0.0375568,0.0401067,0.036818,0.0352541,0.0360416,0.0443638,0.0426142,0.0443149,0.0488128,0.0424788,0.0424959,0.0441251,0.0442149,0.0423364,0.0453881,0.0452592,0.0434733,0.0452405,0.0436269,0.0431897,0.0446554,0.0473059,0.0468578,0.0463517,0.0467336,0.0474096,0.0481701,0.0474236,0.0476932,0.045907,0.0458651,0.0445543,0.0480982,0.0456367,0.0425204,0.0462686,0.0457731,0.0424681,0.0495678,0.042752,0.0482246,0.0441399,0.0442825,0.0459619,0.0475062,0.0523866,0.0463605,0.0597015,0.0441121,0.0421313,0.0294281,0.0157924,0.0141392,0.00848066,0.00883298,8.30077e-05,1.69749e-05,4.13921e-09,nan,nan,nan,nan,nan,nan,nan,nan,nan,nan,nan,nan,nan,nan,nan,nan,nan,nan,nan,nan,nan,nan,nan,nan,nan,nan,nan,nan,nan,nan,nan,nan,nan,nan,nan,nan,nan,nan,nan,nan,nan,nan,nan,nan,nan,nan,nan,nan,nan,nan,nan,nan,nan,nan,nan,nan,nan,nan,nan,nan,nan,nan,nan,nan,nan,nan,nan,nan,nan,nan,nan,nan,nan,nan,nan,nan,nan,nan,nan,nan,nan,nan,nan,nan,nan,nan,nan,nan,nan,nan,nan,nan,nan,nan,nan,nan,nan,nan,nan,nan,nan,nan,nan,nan,nan,nan,nan,nan,nan,nan,nan,nan,nan,nan,nan,nan,nan,nan,nan,nan,nan
0.276133,0.384021,0.416084,0.346883,0.268524,0.247616,0.249793,0.184092,0.174436,0.143364,0.163241,0.244145,0.265266,0.251414,0.305976,0.315511,0.321772,0.433193,0.32601,0.241477,0.265804,0.201878,0.239905,0.169354,0.179804,0.176293,0.155619,0.175488,0.131011,0.163997,0.121512,0.181731,0.134026,0.147411,0.150627,0.143505,0.123963,0.173652,0.17442,0.247463,0.220045,0.227136,0.269031,0.243386,0.231493,0.22003,0.229783,0.194811,0.166968,0.132433,0.135985,0.0908466,0.0766778,0.0666845,0.0784298,0.0641963,0.0644983,0.0616527,0.0831932,0.0826558,0.0656227,0.0661433,0.0446205,0.0379037,0.0423388,0.0539193,0.0360034,0.0485985,0.0559549,0.0419074,0.0439926,0.0549013,0.0517312,0.0473405,0.044412,0.0303788,0.0344127,0.0330057,0.0458585,0.0369355,0.0354202,0.0363027,0.0419402,0.0468851,0.0585952,0.0635243,0.0661288,0.0593073,0.0692328,0.0652079,0.0585539,0.0540996,0.0532277,0.0564846,0.0510643,0.050301,0.0485316,0.0449444,0.0437028,0.0614904,0.0868489,0.122194,0.262164,0.271695,0.331566,0.406186,0.4326,0.638794,0.761943,1,1,1,1,0.689612,0.57395,0.568767,0.405789,0.229726,0.11488,0.058926,0.0528287,0.0542991,0.0521727,0.0536263,0.0580301,0.054601,0.0505408,0.0571271,0.0589113,0.0524139,0.0545426,0.053519,0.0472125,0.049762,0.0417199,0.0420413,0.0393668,0.0376077,0.0424413,0.0407736,0.0442715,0.0417425,0.0411365,0.0371624,0.0393483,0.040599,0.0446188,0.0414849,0.038775,0.0387414,0.0387089,0.0389757,0.0370143,0.0393863,0.0414486,0.0435975,0.0398305,0.0409098,0.0389906,0.038804,0.0402596,0.0398518,0.0393701,0.0445162,0.0495713,0.0481894,0.0502238,0.0604341,0.059927,0.0578972,0.0498228,0.0486159,0.0452747,0.0204134,0.0159252,0.0126925,0.000200603,8.30119e-05,4.13921e-09,nan,nan,nan,nan,nan,nan,nan,nan,nan,nan,nan,nan,nan,nan,nan,nan,nan,nan,nan,nan,nan,nan,nan,nan,nan,nan,nan,nan,nan,nan,nan,nan,nan,nan,nan,nan,nan,nan,nan,nan,nan,nan,nan,nan,nan,nan,nan,nan,nan,nan,nan,nan,nan,nan,nan,nan,nan,nan,nan,nan,nan,nan,nan,nan,nan,nan,nan,nan,nan,nan,nan,nan,nan,nan,nan,nan,nan,nan,nan,nan,nan,nan,nan,nan,nan,nan,nan,nan,nan,nan,nan,nan,nan,nan,nan,nan,nan,nan,nan,nan,nan,nan,nan,nan,nan,nan,nan,nan,nan,nan,nan,nan,nan,nan,nan,nan,nan,nan,nan,nan,nan
0.293304,0.274415,0.313111,0.296955,0.396347,0.229694,0.261855,0.213746,0.189802,0.163015,0.142431,0.131709,0.240278,0.238027,0.236295,0.331139,0.350618,0.319028,0.307209,0.281854,0.251992,0.20846,0.190164,0.251464,0.213965,0.220789,0.170394,0.181625,0.162531,0.185057,0.146008,0.143573,0.156791,0.184606,0.162913,0.146003,0.124374,0.169693,0.207939,0.194754,0.256898,0.194337,0.212706,0.251326,0.267208,0.238241,0.202101,0.195031,0.159685,0.154486,0.151709,0.104314,0.0922447,0.0782328,0.0693983,0.0703501,0.0947841,0.0607609,0.064771,0.0838501,0.0528609,0.0657061,0.0474921,0.0425221,0.050352,0.0530689,0.0401338,0.0514543,0.0371583,0.0462601,0.0327292,0.04398,0.0555903,0.0465644,0.0458666,0.0316839,0.0379773,0.0414315,0.0453238,0.0431813,0.0430594,0.0448899,0.0500574,0.0532093,0.0584394,0.0572167,0.0674889,0.0667644,0.0656233,0.0652732,0.0651677,0.0671662,0.0617734,0.0611436,0.0599965,0.0612987,0.0606082,0.0595782,0.0629115,0.0660429,0.0865849,0.128276,0.253847,0.275394,0.259131,0.313913,0.388623,0.529429,0.614827,0.63237,1,1,1,0.752428,0.712558,0.639837,0.479664,0.264396,0.151291,0.0770374,0.0680238,0.0675608,0.0617935,0.0620534,0.057799,0.0625577,0.0602901,0.0609286,0.0564059,0.0594543,0.0562614,0.0543686,0.0538518,0.0501914,0.0502487,0.0472638,0.0444424,0.046202,0.0447601,0.0413796,0.0415436,0.0397001,0.0452249,0.0430387,0.0434108,0.04285,0.0388091,0.0399351,0.0376463,0.0384697,0.0348106,0.0340532,0.0374243,0.0389162,0.0435131,0.0416203,0.0443008,0.0396941,0.040684,0.0448274,0.0449784,0.0410788,0.0479427,0.0488271,0.0449573,0.0551615,0.061204,0.0611787,0.0436418,0.0581565,0.0498492,0.0490796,0.0494989,0.0458656,0.0220269,0.0151891,0.00118303,0.000200607,2.46697e-06,nan,nan,nan,nan,nan,nan,nan,nan,nan,nan,nan,nan,nan,nan,nan,nan,nan,nan,nan,nan,nan,nan,nan,nan,nan,nan,nan,nan,nan,nan,nan,nan,nan,nan,nan,nan,nan,nan,nan,nan,nan,nan,nan,nan,nan,nan,nan,nan,nan,nan,nan,nan,nan,nan,nan,nan,nan,nan,nan,nan,nan,nan,nan,nan,nan,nan,nan,nan,nan,nan,nan,nan,nan,nan,nan,nan,nan,nan,nan,nan,nan,nan,nan,nan,nan,nan,nan,nan,nan,nan,nan,nan,nan,nan,nan,nan,nan,nan,nan,nan,nan,nan,nan,nan,nan,nan,nan,nan,nan,nan,nan,nan,nan,nan,nan,nan,nan,nan,nan,nan,nan
0.303509,0.294174,0.318159,0.293656,0.291164,0.22658,0.287343,0.185549,0.182775,0.205648,0.190426,0.158073,0.130548,0.178878,0.251425,0.135915,0.199815,0.223,0.203762,0.204465,0.265174,0.216192,0.229778,0.23098,0.206348,0.181914,0.17776,0.205233,0.150759,0.171079,0.172765,0.180421,0.171075,0.14981,0.186817,0.203322,0.168833,0.179474,0.231055,0.186998,0.212343,0.2449,0.259902,0.230745,0.197855,0.201295,0.216613,0.194876,0.210168,0.200058,0.124211,0.118537,0.0996352,0.0680787,0.0629787,0.084177,0.0745552,0.0944452,0.0616656,0.0546004,0.0549244,0.0486521,0.0571926,0.0403018,0.0502916,0.0387342,0.0358525,0.033177,0.0553317,0.054782,0.0502336,0.0401057,0.0331628,0.0435541,0.0374811,0.0332442,0.0405232,0.0459915,0.0432256,0.0411053,0.0500735,0.0452894,0.0536063,0.0617797,0.0714036,0.0688796,0.0770544,0.0804799,0.0767274,0.0789296,0.0788892,0.079808,0.0863915,0.0919101,0.091937,0.0888398,0.076463,0.0770764,0.0847858,0.0842931,0.0929424,0.137462,0.205242,0.262583,0.264276,0.289359,0.34654,0.473588,0.543609,1,1,1,1,1,0.741904,1,0.577913,0.323175,0.18937,0.100823,0.0800126,0.0901869,0.09384,0.091713,0.0981993,0.0933655,0.0933748,0.0950676,0.0869862,0.0850722,0.0929573,0.0717572,0.0591974,0.0511358,0.0490551,0.0354063,0.0322538,0.0319265,0.0332233,0.0320307,0.0369919,0.0265967,0.029177,0.0286442,0.0289784,0.0332678,0.0304616,0.0334629,0.0292324,0.0317914,0.0337842,0.0301,0.0353369,0.049493,0.0472279,0.0473432,0.0482902,0.0519284,0.0400125,0.0396773,0.044926,0.04503,0.0502782,0.0529128,0.0562189,0.0555134,0.0548755,0.0544497,0.0533199,0.0524824,0.0542861,0.056742,0.0460269,0.0489911,0.0326263,0.0343388,0.0344194,0.000331472,nan,nan,nan,nan,nan,nan,nan,nan,nan,nan,nan,nan,nan,nan,nan,nan,nan,nan,nan,nan,nan,nan,nan,nan,nan,nan,nan,nan,nan,nan,nan,nan,nan,nan,nan,nan,nan,nan,nan,nan,nan,nan,nan,nan,nan,nan,nan,nan,nan,nan,nan,nan,nan,nan,nan,nan,nan,nan,nan,nan,nan,nan,nan,nan,nan,nan,nan,nan,nan,nan,nan,nan,nan,nan,nan,nan,nan,nan,nan,nan,nan,nan,nan,nan,nan,nan,nan,nan,nan,nan,nan,nan,nan,nan,nan,nan,nan,nan,nan,nan,nan,nan,nan,nan,nan,nan,nan,nan,nan,nan,nan,nan,nan,nan,nan,nan,nan,nan,nan,nan,nan,nan
0.303434,0.280617,0.282834,0.290418,0.285862,0.247341,0.224622,0.190866,0.204617,0.222891,0.206404,0.182522,0.182942,0.148013,0.183581,0.140172,0.116562,0.188627,0.188283,0.20387,0.209239,0.215847,0.231209,0.20562,0.238485,0.187887,0.172919,0.166051,0.200185,0.16307,0.152393,0.114562,0.153266,0.169085,0.13559,0.164758,0.141538,0.158404,0.172499,0.159269,0.164275,0.196569,0.161066,0.215609,0.202133,0.226108,0.221559,0.193584,0.18672,0.171668,0.201581,0.125642,0.11511,0.065206,0.0842045,0.0593502,0.0584412,0.0727983,0.0546543,0.0821518,0.0495462,0.0504895,0.0356418,0.0473306,0.0481785,0.038025,0.0452841,0.0543362,0.0460421,0.0362316,0.0468901,0.0396232,0.0571649,0.0427631,0.0371085,0.0397295,0.031826,0.0381815,0.0374033,0.044225,0.0466428,0.0507853,0.0615426,0.0647886,0.0619481,0.0646717,0.062974,0.0718599,0.0719359,0.0738229,0.0768161,0.074005,0.0761446,0.0780522,0.079821,0.0899286,0.0920494,0.0983947,0.0944399,0.097799,0.115772,0.14423,0.168646,0.222769,0.246377,0.299771,0.4339,0.448639,0.487129,1,1,1,1,1,0.75342,1,0.671559,0.378283,0.25232,0.139292,0.110446,0.0991249,0.108166,0.104811,0.103639,0.107058,0.105374,0.106961,0.112945,0.0922492,0.0873406,0.0935258,0.0754768,0.0500044,0.0489373,0.0403442,0.032296,0.0299062,0.0208644,0.020385,0.0199685,0.0224808,0.0224798,0.0185769,0.0228352,0.0233297,0.0215234,0.0210298,0.0215713,0.0250301,0.0256574,0.0281178,0.0298019,0.0475109,0.0480576,0.0494465,0.0505165,0.0515671,0.0381002,nan,0.0422859,nan,0.0436714,0.0453555,0.0446706,0.0514409,0.0562161,0.0533385,0.0546911,0.0572315,0.0598084,0.0558151,0.0557047,0.0591737,0.047599,0.0590858,0.00335833,0.000381267,nan,nan,nan,nan,nan,nan,nan,nan,nan,nan,nan,nan,nan,nan,nan,nan,nan,nan,nan,nan,nan,nan,nan,nan,nan,nan,nan,nan,nan,nan,nan,nan,nan,nan,nan,nan,nan,nan,nan,nan,nan,nan,nan,nan,nan,nan,nan,nan,nan,nan,nan,nan,nan,nan,nan,nan,nan,nan,nan,nan,nan,nan,nan,nan,nan,nan,nan,nan,nan,nan,nan,nan,nan,nan,nan,nan,nan,nan,nan,nan,nan,nan,nan,nan,nan,nan,nan,nan,nan,nan,nan,nan,nan,nan,nan,nan,nan,nan,nan,nan,nan,nan,nan,nan,nan,nan,nan,nan,nan,nan,nan,nan,nan,nan,nan,nan,nan,nan,nan,nan,nan,nan
0.31588,0.286286,0.282538,0.256931,0.172742,0.237527,0.218223,0.184754,0.206394,0.202106,0.295978,0.202435,0.210431,0.183965,0.158125,0.147618,0.115354,0.0817678,0.0760561,0.097505,0.123518,0.213039,0.208023,0.228492,0.204849,0.200929,0.189943,0.166889,0.158608,0.161327,0.1759,0.133842,0.127528,0.116714,0.136478,0.146741,0.13779,0.182107,0.17608,0.149509,0.18468,0.162015,0.195978,0.191912,0.20928,0.204463,0.203817,0.217637,0.229767,0.179089,0.21318,0.135638,0.117707,0.0928017,0.0810401,0.080651,0.0808905,0.0618571,0.0616312,0.0606594,0.0413933,0.0498866,0.0393231,0.0284612,0.0293598,0.0254665,0.0287723,0.0474289,0.0364337,0.031426,0.0323353,0.046931,0.0402556,0.0468046,0.0406334,0.0372263,0.0434343,0.0418011,0.0357726,0.0486612,0.0406608,0.0486787,0.0506207,0.0587512,0.0579444,0.0547169,0.0613147,0.0715656,0.0746518,0.0773475,0.0788832,0.0863148,0.0907648,0.0939538,0.0916539,0.0845816,0.0885509,0.0908342,0.0888984,0.0896827,0.096124,0.114644,0.139124,0.178935,0.234481,0.283577,0.320183,0.430229,0.569733,1,1,1,1,1,0.757499,1,0.654271,0.353258,0.211613,0.11657,0.0907553,0.0873981,0.0947996,0.102513,0.0813457,0.084337,0.102986,0.0874292,0.0954484,0.0973473,0.0875929,0.0843052,0.0769165,0.0589347,0.0451928,0.035375,0.0185205,0.0134196,nan,nan,nan,nan,nan,nan,nan,nan,nan,nan,nan,nan,nan,nan,nan,nan,nan,nan,nan,nan,nan,nan,nan,nan,0.0382472,0.0448171,0.0445159,0.0469023,0.0495952,0.0578588,0.0650142,0.0668765,0.0699559,0.0656345,0.0733131,0.0800787,0.0790995,0.0676671,0.00529267,nan,nan,nan,nan,nan,nan,nan,nan,nan,nan,nan,nan,nan,nan,nan,nan,nan,nan,nan,nan,nan,nan,nan,nan,nan,nan,nan,nan,nan,nan,nan,nan,nan,nan,nan,nan,nan,nan,nan,nan,nan,nan,nan,nan,nan,nan,nan,nan,nan,nan,nan,nan,nan,nan,nan,nan,nan,nan,nan,nan,nan,nan,nan,nan,nan,nan,nan,nan,nan,nan,nan,nan,nan,nan,nan,nan,nan,nan,nan,nan,nan,nan,nan,nan,nan,nan,nan,nan,nan,nan,nan,nan,nan,nan,nan,nan,nan,nan,nan,nan,nan,nan,nan,nan,nan,nan,nan,nan,nan,nan,nan,nan,nan,nan,nan,nan,nan,nan,nan,nan,nan,nan,nan
0.218613,0.280237,0.236323,0.240005,0.175966,0.163761,0.203814,0.171091,0.273274,0.297359,0.23855,0.280707,0.301585,0.280736,0.237685,0.185574,0.159823,0.0994826,0.0900691,0.0943453,0.124904,0.139601,0.159183,0.213282,0.196381,0.21556,0.217078,0.199918,0.173077,0.20116,0.133463,0.152151,0.111791,0.146105,0.123464,0.153646,0.137996,0.12422,0.158404,0.173899,0.131867,0.151861,0.142215,0.190687,0.171183,0.207738,0.193409,0.209896,0.228684,0.20026,0.180894,0.124809,0.123891,0.0867681,0.0824328,0.0760084,0.0623289,0.0505063,0.0605132,0.060095,0.0685799,0.0409154,0.0522293,0.0348141,0.0281553,0.0284329,0.0288998,0.0252493,0.0262051,0.0333393,0.0260018,0.0291209,0.027812,0.0318413,0.0305853,0.0333218,0.0328816,0.0305883,0.0365615,0.0326259,0.0427306,0.0425986,0.0391843,0.0524356,0.0555293,0.0389141,0.0454235,0.0499379,0.0609467,0.0642823,0.0526092,0.0653358,0.0654742,0.0651593,0.0720155,0.0728115,0.0902656,0.0825169,0.0889873,0.097121,0.0945388,0.114714,0.129633,0.153565,0.254534,0.26872,0.3228,0.474059,0.555836,0.56835,1,1,1,0.909669,1,1,0.676132,0.411009,0.233405,0.114045,0.105974,0.103892,0.0954011,0.101883,0.103078,0.0894837,0.105575,0.109981,0.0824737,0.0806301,0.0761154,0.0724709,0.0799158,0.0705551,0.0477039,0.0268669,0.0221347,nan,nan,nan,nan,nan,nan,nan,nan,nan,nan,nan,nan,nan,nan,nan,nan,nan,nan,nan,nan,nan,nan,nan,nan,nan,nan,0.0610903,0.0705627,0.06704,0.0613835,0.0835356,0.0866897,0.0853792,0.0925115,0.105896,0.109086,0.0846037,0.0769281,nan,nan,nan,nan,nan,nan,nan,nan,nan,nan,nan,nan,nan,nan,nan,nan,nan,nan,nan,nan,nan,nan,nan,nan,nan,nan,nan,nan,nan,nan,nan,nan,nan,nan,nan,nan,nan,nan,nan,nan,nan,nan,nan,nan,nan,nan,nan,nan,nan,nan,nan,nan,nan,nan,nan,nan,nan,nan,nan,nan,nan,nan,nan,nan,nan,nan,nan,nan,nan,nan,nan,nan,nan,nan,nan,nan,nan,nan,nan,nan,nan,nan,nan,nan,nan,nan,nan,nan,nan,nan,nan,nan,nan,nan,nan,nan,nan,nan,nan,nan,nan,nan,nan,nan,nan,nan,nan,nan,nan,nan,nan,nan,nan,nan,nan,nan,nan,nan,nan,nan,nan,nan,nan,nan,nan
0.220121,0.220419,0.252772,0.208142,0.217985,0.204534,0.223806,0.175917,0.176499,0.259259,0.247751,0.345367,0.270441,0.246079,0.337761,0.265549,0.243796,0.0948069,0.0903079,0.0743386,0.0803504,0.148463,0.211434,0.17886,0.227117,0.196439,0.202336,0.210826,0.154148,0.185831,0.18475,0.192623,0.155799,0.127511,0.130271,0.114708,0.135484,0.176127,0.142549,0.134327,0.14236,0.17138,0.146251,0.158336,0.166498,0.212166,0.205314,0.223145,0.176446,0.216394,0.210231,0.173522,0.151312,0.0885136,0.0767359,0.0785428,0.0715748,0.0626555,0.0618261,0.0789275,0.0597518,0.0676977,0.0409751,0.0372428,0.0503753,0.0363594,0.0424675,0.025312,0.0344038,0.0240035,0.031786,0.043689,0.0443172,0.0321523,0.0266315,0.0344358,0.0302786,0.0277405,0.0366405,0.0254711,0.0323212,0.0391084,0.0452082,0.0362346,0.0368725,0.0305205,0.0363619,0.0325312,0.035795,0.0483346,0.047794,0.0451842,0.0472115,0.0517384,0.0619965,0.0683397,0.0708264,0.0648068,0.0754975,0.0693617,0.0771771,0.0862181,0.104371,0.127744,0.208804,0.315199,0.334493,0.407511,0.582397,0.65355,1,1,1,1,0.766794,0.835797,0.521105,0.381049,0.185659,0.0852338,0.0721646,0.0692089,0.0782871,0.0667241,0.05735,0.0650442,0.0565496,0.0687442,0.0714106,0.0711545,0.0739079,0.0760719,0.0722022,0.087627,0.0717118,0.0492496,nan,nan,nan,nan,nan,nan,nan,nan,nan,nan,nan,nan,nan,nan,nan,nan,nan,nan,nan,nan,nan,nan,nan,nan,nan,nan,nan,nan,0.0964409,0.102806,0.134059,0.047369,0.0375293,0.136067,0.138174,0.141935,0.152296,nan,nan,nan,nan,nan,nan,nan,nan,nan,nan,nan,nan,nan,nan,nan,nan,nan,nan,nan,nan,nan,nan,nan,nan,nan,nan,nan,nan,nan,nan,nan,nan,nan,nan,nan,nan,nan,nan,nan,nan,nan,nan,nan,nan,nan,nan,nan,nan,nan,nan,nan,nan,nan,nan,nan,nan,nan,nan,nan,nan,nan,nan,nan,nan,nan,nan,nan,nan,nan,nan,nan,nan,nan,nan,nan,nan,nan,nan,nan,nan,nan,nan,nan,nan,nan,nan,nan,nan,nan,nan,nan,nan,nan,nan,nan,nan,nan,nan,nan,nan,nan,nan,nan,nan,nan,nan,nan,nan,nan,nan,nan,nan,nan,nan,nan,nan,nan,nan,nan,nan,nan,nan,nan,nan,nan,nan,nan
0.261548,0.297714,0.194481,0.198897,0.178944,0.152648,0.164002,0.179081,0.179144,0.20973,0.255758,0.345788,0.348797,0.352585,0.258421,0.281894,0.250901,0.27157,0.0798585,0.0816404,0.0936301,0.125224,0.157138,0.190037,0.214542,0.214243,0.180752,0.208084,0.175167,0.186495,0.198624,0.187841,0.154599,0.132439,0.100602,0.16295,0.124886,0.115862,0.119639,0.117803,0.140818,0.148901,0.165666,0.152968,0.178271,0.166729,0.17807,0.229717,0.189311,0.200408,0.173049,0.190588,0.150692,0.0852926,0.0633343,0.0508851,0.0702857,0.0881642,0.0856738,0.0891856,0.0538269,0.05745,0.0474973,0.0496255,0.0443172,0.0423419,0.0350115,0.0348868,0.0278125,0.0403251,0.0371975,0.0270372,0.0298033,0.0448434,0.0484518,0.049197,0.0305736,0.0344888,0.0277231,0.0240307,0.0385943,0.0369644,0.0477928,0.0314804,0.0273028,0.0315503,0.0302604,0.0284217,0.0407693,0.0432916,0.0607134,0.0385354,0.0441732,0.0442031,0.0419561,0.04864,0.0474144,0.0484662,0.0459152,0.0529064,0.0507382,0.0547024,0.0703546,0.110425,0.231364,0.344709,0.361112,0.483923,0.492769,0.651304,1,1,1,1,0.826981,1,0.608118,0.385455,0.158701,0.0672051,0.069918,0.0628811,0.0586949,0.0402789,0.0531717,0.0467675,0.0503414,0.0617922,0.0586013,0.053716,0.0847391,0.100067,0.0897957,0.110526,0.127881,0.0608629,nan,nan,nan,nan,nan,nan,nan,nan,nan,nan,nan,nan,nan,nan,nan,nan,nan,nan,nan,nan,nan,nan,nan,nan,nan,nan,nan,nan,nan,nan,nan,nan,nan,nan,nan,nan,nan,nan,nan,nan,nan,nan,nan,nan,nan,nan,nan,nan,nan,nan,nan,nan,nan,nan,nan,nan,nan,nan,nan,nan,nan,nan,nan,nan,nan,nan,nan,nan,nan,nan,nan,nan,nan,nan,nan,nan,nan,nan,nan,nan,nan,nan,nan,nan,nan,nan,nan,nan,nan,nan,nan,nan,nan,nan,nan,nan,nan,nan,nan,nan,nan,nan,nan,nan,nan,nan,nan,nan,nan,nan,nan,nan,nan,nan,nan,nan,nan,nan,nan,nan,nan,nan,nan,nan,nan,nan,nan,nan,nan,nan,nan,nan,nan,nan,nan,nan,nan,nan,nan,nan,nan,nan,nan,nan,nan,nan,nan,nan,nan,nan,nan,nan,nan,nan,nan,nan,nan,nan,nan,nan,nan,nan,nan,nan
0.282939,0.442132,0.275243,0.236551,0.203145,0.208285,0.132846,0.148217,0.153064,0.174276,0.208922,0.322905,0.338009,0.374123,0.399014,0.393272,0.27898,0.272228,0.103173,0.115526,0.12362,0.139661,0.187076,0.213201,0.171509,0.221071,0.188266,0.194077,0.183841,0.200632,0.193644,0.170046,0.172499,0.157541,0.130527,0.136703,0.126955,0.115172,0.0885332,0.102187,0.134657,0.12228,0.167637,0.146468,0.153682,0.212068,0.172007,0.186885,0.202618,0.218781,0.201519,0.147261,0.161223,0.117849,0.0799816,0.0707652,0.0752164,0.0581784,0.0619258,0.0601358,0.0747993,0.0623005,0.061424,0.0705062,0.0454567,0.0523566,0.0416061,0.0411686,0.0378826,0.0377467,0.0459318,0.0466151,0.0575867,0.0562471,0.0577124,0.0441253,0.0504382,0.037172,0.0363235,0.0441619,0.0436869,0.0569303,0.044889,0.0379993,0.0435601,0.0374699,0.0377858,0.0485093,0.0517233,0.0719298,0.0601058,0.0475405,0.0332244,0.0411131,0.0433229,0.0471755,0.0380211,0.0757692,0.0603423,0.0621655,0.0308333,0.0323767,0.0679167,0.109683,0.264753,0.357573,0.509722,0.509406,0.473394,0.496665,0.612068,1,1,1,0.690507,1,0.599063,0.412708,0.163153,0.0773458,0.0488204,0.062309,0.0595194,0.0350075,0.0480386,0.0346374,0.0249996,0.0316868,0.0280491,0.0303171,0.0708615,0.116419,0.129822,nan,nan,nan,nan,nan,nan,nan,nan,nan,nan,nan,nan,nan,nan,nan,nan,nan,nan,nan,nan,nan,nan,nan,nan,nan,nan,nan,nan,nan,nan,nan,nan,nan,nan,nan,nan,nan,nan,nan,nan,nan,nan,nan,nan,nan,nan,nan,nan,nan,nan,nan,nan,nan,nan,nan,nan,nan,nan,nan,nan,nan,nan,nan,nan,nan,nan,nan,nan,nan,nan,nan,nan,nan,nan,nan,nan,nan,nan,nan,nan,nan,nan,nan,nan,nan,nan,nan,nan,nan,nan,nan,nan,nan,nan,nan,nan,nan,nan,nan,nan,nan,nan,nan,nan,nan,nan,nan,nan,nan,nan,nan,nan,nan,nan,nan,nan,nan,nan,nan,nan,nan,nan,nan,nan,nan,nan,nan,nan,nan,nan,nan,nan,nan,nan,nan,nan,nan,nan,nan,nan,nan,nan,nan,nan,nan,nan,nan,nan,nan,nan,nan,nan,nan,nan,nan,nan,nan,nan,nan,nan,nan,nan,nan,nan,nan,nan,nan
1,1,0.398828,0.368224,0.305752,0.162729,0.129469,0.165835,0.147495,0.173178,0.172822,0.183218,0.312018,0.388957,0.373862,0.309446,0.264203,0.279779,0.137651,0.140316,0.110034,0.210876,0.182752,0.21533,0.193613,0.212844,0.182341,0.169457,0.177093,0.177396,0.161355,0.165712,0.134761,0.124005,0.125837,0.108795,0.152328,0.0874183,0.124165,0.0883032,0.0920857,0.109055,0.140452,0.138886,0.151404,0.159006,0.197261,0.215097,0.218634,0.196611,0.221759,0.188597,0.144272,0.10872,0.100575,0.0613525,0.0653362,0.0490939,0.0694475,0.0773546,0.0786564,0.0467682,0.0627523,0.0579765,0.0552184,0.0909541,0.0818628,0.0718755,0.0435272,0.0407015,0.0628624,0.0530312,0.0695138,0.0552015,0.0818861,0.0743926,0.0518133,0.0574633,0.0446025,0.0491083,0.0747565,0.0582231,0.0649162,0.0540704,0.0511519,0.0583289,0.0528088,0.0805061,0.0742391,0.0923754,0.0621628,0.0850865,0.0616058,0.0553528,0.0511685,0.0536204,0.0607591,0.079806,0.0735345,0.0767441,0.0772947,0.0439169,0.0581491,0.151428,0.265731,0.371394,0.534749,0.510345,0.620903,0.42734,0.576804,1,1,1,0.702588,1,0.579571,0.357956,0.191033,0.0707275,0.0589257,0.0660821,0.0357583,0.0409902,0.0418391,0.0317501,0.0274725,0.019482,0.0144103,0.0281913,0.0646578,0.0163484,nan,nan,nan,nan,nan,nan,nan,nan,nan,nan,nan,nan,nan,nan,nan,nan,nan,nan,nan,nan,nan,nan,nan,nan,nan,nan,nan,nan,nan,nan,nan,nan,nan,nan,nan,nan,nan,nan,nan,nan,nan,nan,nan,nan,nan,nan,nan,nan,nan,nan,nan,nan,nan,nan,nan,nan,nan,nan,nan,nan,nan,nan,nan,nan,nan,nan,nan,nan,nan,nan,nan,nan,nan,nan,nan,nan,nan,nan,nan,nan,nan,nan,nan,nan,nan,nan,nan,nan,nan,nan,nan,nan,nan,nan,nan,nan,nan,nan,nan,nan,nan,nan,nan,nan,nan,nan,nan,nan,nan,nan,nan,nan,nan,nan,nan,nan,nan,nan,nan,nan,nan,nan,nan,nan,nan,nan,nan,nan,nan,nan,nan,nan,nan,nan,nan,nan,nan,nan,nan,nan,nan,nan,nan,nan,nan,nan,nan,nan,nan,nan,nan,nan,nan,nan,nan,nan,nan,nan,nan,nan,nan,nan,nan,nan,nan,nan,nan,nan
1,1,0.577093,0.37335,0.341832,0.307435,0.18537,0.139176,0.112671,0.109553,0.145441,0.225182,0.216231,0.262848,0.358731,0.287394,0.340254,0.172235,0.158674,0.119478,0.123896,0.185912,0.219594,0.236409,0.192243,0.169227,0.180093,0.212625,0.170523,0.176454,0.198363,0.153126,0.141499,0.11947,0.162815,0.13319,0.121477,0.1107,0.113679,0.0867144,0.12315,0.121471,0.109776,0.116468,0.140109,0.157025,0.148349,0.146241,0.208616,0.216258,0.172357,0.183026,0.158385,0.142522,0.0927207,0.0983311,0.0751487,0.0736661,0.0740487,0.0483132,0.0629644,0.0635979,0.0572837,0.0734667,0.0746871,0.066262,0.0797776,0.084345,0.0807091,0.0655285,0.064935,0.0656714,0.0607656,0.0611651,0.0889816,0.0550982,0.0630962,0.0527596,0.0543072,0.0585454,0.0694153,0.0711517,0.0655805,0.0906295,0.0652459,0.0681116,0.0636943,0.0697132,0.0742859,0.100288,0.100419,0.0770587,0.0807258,0.0694751,0.0759483,0.0752967,0.0756348,0.0765682,0.105096,0.0862585,0.1018,0.0850637,0.113682,0.18877,0.261603,0.373981,0.581581,0.489993,0.634059,0.429778,0.544655,1,1,1,0.711517,1,0.491885,0.342475,0.213916,0.0424925,0.0330735,0.034545,0.0293459,0.0343247,0.0308423,0.0240365,0.0142815,0.00757646,0.00102763,0.00102762,0.000682486,nan,nan,nan,nan,nan,nan,nan,nan,nan,nan,nan,nan,nan,nan,nan,nan,nan,nan,nan,nan,nan,nan,nan,nan,nan,nan,nan,nan,nan,nan,nan,nan,nan,nan,nan,nan,nan,nan,nan,nan,nan,nan,nan,nan,nan,nan,nan,nan,nan,nan,nan,nan,nan,nan,nan,nan,nan,nan,nan,nan,nan,nan,nan,nan,nan,nan,nan,nan,nan,nan,nan,nan,nan,nan,nan,nan,nan,nan,nan,nan,nan,nan,nan,nan,nan,nan,nan,nan,nan,nan,nan,nan,nan,nan,nan,nan,nan,nan,nan,nan,nan,nan,nan,nan,nan,nan,nan,nan,nan,nan,nan,nan,nan,nan,nan,nan,nan,nan,nan,nan,nan,nan,nan,nan,nan,nan,nan,nan,nan,nan,nan,nan,nan,nan,nan,nan,nan,nan,nan,nan,nan,nan,nan,nan,nan,nan,nan,nan,nan,nan,nan,nan,nan,nan,nan,nan,nan,nan,nan,nan,nan,nan,nan,nan,nan,nan,nan,nan,nan
1,1,1,0.450674,0.294494,0.262586,0.128636,0.117827,0.0888019,0.141169,0.148444,0.184185,0.227711,0.265685,0.23033,0.218565,0.199974,0.189001,0.216405,0.123879,0.120642,0.169509,0.176283,0.254551,0.272413,0.252187,0.181325,0.173891,0.17943,0.154502,0.130463,0.114434,0.131236,0.137467,0.127084,0.123345,0.128241,0.121487,0.121558,0.111569,0.118584,0.119578,0.118582,0.181515,0.136957,0.145649,0.135434,0.15354,0.184286,0.161306,0.172633,0.195738,0.15516,0.139761,0.114295,0.0790729,0.0642231,0.0580019,0.0532775,0.0753015,0.0483627,0.0726033,0.0748522,0.0602414,0.0650117,0.0632551,0.102831,0.0736893,0.0656296,0.0955153,0.0850499,0.101066,0.0781774,0.0767623,0.0998295,0.0695592,0.0772007,0.0586881,0.052723,0.0755862,0.0658255,0.0910492,0.0955995,0.077345,0.0737442,0.0990141,0.0878166,0.0856396,0.0879626,0.097849,0.0904101,0.0939879,0.0967221,0.0946441,0.126766,0.0964732,0.0967078,0.109694,0.123097,0.0988891,0.0881064,0.0907648,0.139526,0.15661,0.255383,0.378989,0.58434,0.495044,0.542563,0.471302,0.533399,0.686313,0.707193,1,0.726037,0.774656,0.4548,0.272413,0.0537391,0.0355847,0.0346049,0.0303657,0.022828,0.0282477,0.0236446,0.016994,0.00550722,0.000324452,9.18243e-05,9.18284e-05,3.88672e-05,nan,nan,nan,nan,nan,nan,nan,nan,nan,nan,nan,nan,nan,nan,nan,nan,nan,nan,nan,nan,nan,nan,nan,nan,nan,nan,nan,nan,nan,nan,nan,nan,nan,nan,nan,nan,nan,nan,nan,nan,nan,nan,nan,nan,nan,nan,nan,nan,nan,nan,nan,nan,nan,nan,nan,nan,nan,nan,nan,nan,nan,nan,nan,nan,nan,nan,nan,nan,nan,nan,nan,nan,nan,nan,nan,nan,nan,nan,nan,nan,nan,nan,nan,nan,nan,nan,nan,nan,nan,nan,nan,nan,nan,nan,nan,nan,nan,nan,nan,nan,nan,nan,nan,nan,nan,nan,nan,nan,nan,nan,nan,nan,nan,nan,nan,nan,nan,nan,nan,nan,nan,nan,nan,nan,nan,nan,nan,nan,nan,nan,nan,nan,nan,nan,nan,nan,nan,nan,nan,nan,nan,nan,nan,nan,nan,nan,nan,nan,nan,nan,nan,nan,nan,nan,nan,nan,nan,nan,nan,nan,nan,nan,nan,nan,nan,nan,nan,nan,nan
1,1,1,1,0.380471,0.330727,0.143756,0.119121,0.11235,0.12061,0.208334,0.174989,0.27155,0.255696,0.25425,0.24071,0.213764,0.220345,0.14283,0.191739,0.130134,0.139705,0.183996,0.205294,0.231015,0.227185,0.274069,0.176677,0.155829,0.148905,0.134854,0.128395,0.160142,0.11613,0.138399,0.111626,0.0981155,0.128621,0.110223,0.123952,0.111245,0.133968,0.127552,0.153224,0.128462,0.157578,0.140865,0.177517,0.149016,0.178842,0.192034,0.190941,0.185263,0.16488,0.119112,0.0903954,0.0833484,0.0590047,0.0498379,0.0646721,0.0487401,0.0595789,0.0539028,0.0732418,0.0771978,0.0770035,0.068647,0.0804227,0.0735311,0.0847708,0.110262,0.0797432,0.0934331,0.107736,0.0855089,0.0816733,0.0779567,0.0671471,0.0803481,0.0637105,0.0669543,0.0885396,0.0862586,0.0889039,0.0990076,0.0748494,0.0894594,0.104532,0.101611,0.105652,0.112696,0.102814,0.104287,0.130827,0.116043,0.115191,0.11138,0.116598,0.114355,0.111444,0.157371,0.121105,0.128454,0.184016,0.275358,0.381401,0.454953,0.502628,0.541405,0.480184,0.505421,1,0.633043,1,0.741485,0.61114,0.39478,0.248443,0.0366462,0.0243521,0.0295264,0.0225682,0.0164923,0.0242876,0.0166535,0.0107178,0.0050877,8.38045e-05,4.13921e-09,4.13921e-09,4.13921e-09,nan,nan,nan,nan,nan,nan,nan,nan,nan,nan,nan,nan,nan,nan,nan,nan,nan,nan,nan,nan,nan,nan,nan,nan,nan,nan,nan,nan,nan,nan,nan,nan,nan,nan,nan,nan,nan,nan,nan,nan,nan,nan,nan,nan,nan,nan,nan,nan,nan,nan,nan,nan,nan,nan,nan,nan,nan,nan,nan,nan,nan,nan,nan,nan,nan,nan,nan,nan,nan,nan,nan,nan,nan,nan,nan,nan,nan,nan,nan,nan,nan,nan,nan,nan,nan,nan,nan,nan,nan,nan,nan,nan,nan,nan,nan,nan,nan,nan,nan,nan,nan,nan,nan,nan,nan,nan,nan,nan,nan,nan,nan,nan,nan,nan,nan,nan,nan,nan,nan,nan,nan,nan,nan,nan,nan,nan,nan,nan,nan,nan,nan,nan,nan,nan,nan,nan,nan,nan,nan,nan,nan,nan,nan,nan,nan,nan,nan,nan,nan,nan,nan,nan,nan,nan,nan,nan,nan,nan,nan,nan,nan,nan,nan,nan,nan,nan,nan,nan,nan
1,1,1,1,0.333057,0.27913,0.26244,0.167739,0.122429,0.133078,0.166594,0.231134,0.216271,0.255974,0.272461,0.272431,0.182313,0.177368,0.15696,0.14599,0.163109,0.132494,0.190375,0.205655,0.313483,0.265947,0.255207,0.157662,0.135681,0.146407,0.145462,0.127547,0.14821,0.136094,0.12322,0.115542,0.0969527,0.158181,0.119991,0.149464,0.136621,0.155028,0.161707,0.139055,0.18043,0.149345,0.127449,0.164642,0.161329,0.164464,0.193914,0.19589,0.161259,0.148808,0.11244,0.0956627,0.0851481,0.0566749,0.0675237,0.060075,0.0553832,0.0775302,0.0585896,0.0728724,0.0642471,0.0670236,0.0752478,0.0873021,0.100788,0.0864835,0.0846828,0.0745728,0.0896156,0.111416,0.0936928,0.0944972,0.0815292,0.0745445,0.0700038,0.0701543,0.0649529,0.0994874,0.0942788,0.0940808,0.0969185,0.0974875,0.108152,0.0964041,0.107702,0.107357,0.134502,0.11635,0.102013,0.1342,0.14038,0.147591,0.127338,0.127094,0.143765,0.133796,0.120105,0.13558,0.189612,0.202022,0.238124,0.371073,0.567979,0.494539,0.495481,0.476622,0.52477,1,0.64534,1,0.683044,0.569979,0.399225,0.150896,0.0234139,0.0180339,0.0143973,0.0208667,0.0139222,0.0223094,0.0147724,0.00924618,0.00504331,8.38004e-05,4.13921e-09,4.13921e-09,2.06961e-09,nan,nan,nan,nan,nan,nan,nan,nan,nan,nan,nan,nan,nan,nan,nan,nan,nan,nan,nan,nan,nan,nan,nan,nan,nan,nan,nan,nan,nan,nan,nan,nan,nan,nan,nan,nan,nan,nan,nan,nan,nan,nan,nan,nan,nan,nan,nan,nan,nan,nan,nan,nan,nan,nan,nan,nan,nan,nan,nan,nan,nan,nan,nan,nan,nan,nan,nan,nan,nan,nan,nan,nan,nan,nan,nan,nan,nan,nan,nan,nan,nan,nan,nan,nan,nan,nan,nan,nan,nan,nan,nan,nan,nan,nan,nan,nan,nan,nan,nan,nan,nan,nan,nan,nan,nan,nan,nan,nan,nan,nan,nan,nan,nan,nan,nan,nan,nan,nan,nan,nan,nan,nan,nan,nan,nan,nan,nan,nan,nan,nan,nan,nan,nan,nan,nan,nan,nan,nan,nan,nan,nan,nan,nan,nan,nan,nan,nan,nan,nan,nan,nan,nan,nan,nan,nan,nan,nan,nan,nan,nan,nan,nan,nan,nan,nan,nan,nan,nan,nan
1,1,1,1,0.345306,0.281438,0.193828,0.140825,0.201656,0.174027,0.192306,0.259873,0.256651,0.271633,0.22766,0.231916,0.173672,0.171841,0.201922,0.139272,0.13711,0.132073,0.243262,0.225513,0.200382,0.278995,0.317885,0.160052,0.161432,0.146108,0.132078,0.174049,0.174363,0.130435,0.124445,0.126083,0.140071,0.157708,0.125927,0.145417,0.14818,0.117109,0.158154,0.12304,0.130688,0.129314,0.147778,0.140513,0.197189,0.193843,0.191939,0.177192,0.187467,0.187686,0.112218,0.0909413,0.0851549,0.0616044,0.053266,0.0756487,0.0758396,0.0679726,0.0865127,0.0621741,0.0903285,0.0704539,0.0891072,0.0992362,0.125006,0.108908,0.0902181,0.087141,0.118254,0.0989926,0.0996195,0.0783946,0.0941574,0.0745705,0.0864342,0.0833058,0.0800822,0.0761633,0.0786113,0.0920967,0.0735426,0.120982,0.0971254,0.119563,0.11903,0.118384,0.106224,0.109986,0.140249,0.1413,0.140473,0.131063,0.126089,0.131152,0.193848,0.161083,0.155672,0.158097,0.153795,0.202997,0.23493,0.323143,0.452054,0.463362,0.643621,0.443894,0.504461,1,1,0.819476,0.781182,0.64228,0.498744,0.352907,0.0704146,0.0257645,0.0225056,0.0198291,0.0147204,0.0202979,0.0124187,0.00794573,0.00512479,8.38004e-05,6.62274e-08,4.13921e-09,2.06961e-09,2.06961e-09,nan,nan,nan,nan,nan,nan,nan,nan,nan,nan,nan,nan,nan,nan,nan,nan,nan,nan,nan,nan,nan,nan,nan,nan,nan,nan,nan,nan,nan,nan,nan,nan,nan,nan,nan,nan,nan,nan,nan,nan,nan,nan,nan,nan,nan,nan,nan,nan,nan,nan,nan,nan,nan,nan,nan,nan,nan,nan,nan,nan,nan,nan,nan,nan,nan,nan,nan,nan,nan,nan,nan,nan,nan,nan,nan,nan,nan,nan,nan,nan,nan,nan,nan,nan,nan,nan,nan,nan,nan,nan,nan,nan,nan,nan,nan,nan,nan,nan,nan,nan,nan,nan,nan,nan,nan,nan,nan,nan,nan,nan,nan,nan,nan,nan,nan,nan,nan,nan,nan,nan,nan,nan,nan,nan,nan,nan,nan,nan,nan,nan,nan,nan,nan,nan,nan,nan,nan,nan,nan,nan,nan,nan,nan,nan,nan,nan,nan,nan,nan,nan,nan,nan,nan,nan,nan,nan,nan,nan,nan,nan,nan,nan,nan,nan,nan,nan,nan,nan
1,1,1,0.375261,0.29542,0.332041,0.178479,0.178436,0.189576,0.198139,0.212019,0.272148,0.256616,0.255146,0.181404,0.202462,0.172976,0.196185,0.157033,0.151707,0.150231,0.15854,0.173304,0.216368,0.207805,0.207634,0.167649,0.169106,0.153342,0.136362,0.143358,0.149913,0.138082,0.146868,0.11831,0.131126,0.133261,0.117399,0.172297,0.173706,0.154006,0.133642,0.126601,0.126115,0.102697,0.157521,0.125528,0.15357,0.154912,0.164215,0.169081,0.201158,0.160437,0.179638,0.123795,0.123867,0.103505,0.0791994,0.0618018,0.0610145,0.0743776,0.088052,0.0680188,0.0744013,0.0973567,0.0922304,0.120528,0.0981453,0.124553,0.0785367,0.088479,0.0874005,0.080263,0.115419,0.100601,0.0901737,0.0844302,0.083324,0.0682752,0.0954193,0.0692217,0.0886424,0.0788826,0.101322,0.0867989,0.0850277,0.103685,0.103035,0.136884,0.122702,0.14713,0.110859,0.117484,0.111122,0.146699,0.133686,0.138412,0.159579,0.153778,0.137298,0.158264,0.147866,0.179076,0.209833,0.251132,0.285457,0.483348,0.417263,0.464332,0.424578,0.473597,0.698396,1,1,0.818328,1,0.573095,0.393805,0.191013,0.0367155,0.0312527,0.0264698,0.0189105,0.0225669,0.0117002,0.00613189,0.00217986,7.17739e-05,6.41578e-08,4.13921e-09,2.06961e-09,2.06961e-09,nan,nan,nan,nan,nan,nan,nan,nan,nan,nan,nan,nan,nan,nan,nan,nan,nan,nan,nan,nan,nan,nan,nan,nan,nan,nan,nan,nan,nan,nan,nan,nan,nan,nan,nan,nan,nan,nan,nan,nan,nan,nan,nan,nan,nan,nan,nan,nan,nan,nan,nan,nan,nan,nan,nan,nan,nan,nan,nan,nan,nan,nan,nan,nan,nan,nan,nan,nan,nan,nan,nan,nan,nan,nan,nan,nan,nan,nan,nan,nan,nan,nan,nan,nan,nan,nan,nan,nan,nan,nan,nan,nan,nan,nan,nan,nan,nan,nan,nan,nan,nan,nan,nan,nan,nan,nan,nan,nan,nan,nan,nan,nan,nan,nan,nan,nan,nan,nan,nan,nan,nan,nan,nan,nan,nan,nan,nan,nan,nan,nan,nan,nan,nan,nan,nan,nan,nan,nan,nan,nan,nan,nan,nan,nan,nan,nan,nan,nan,nan,nan,nan,nan,nan,nan,nan,nan,nan,nan,nan,nan,nan,nan,nan,nan,nan,nan,nan,nan
1,0.483332,0.406883,0.325873,0.283531,0.17499,0.178818,0.202014,0.21876,0.230364,0.268852,0.195383,0.26088,0.242932,0.233053,0.175256,0.154594,0.156557,0.15305,0.152243,0.123352,0.151064,0.15586,0.155218,0.159077,0.206431,0.159837,0.154516,0.14179,0.126996,0.130643,0.170636,0.159139,0.180199,0.161558,0.13094,0.13201,0.124826,0.128496,0.141567,0.139989,0.120775,0.129658,0.129983,0.134824,0.137992,0.160299,0.147755,0.168225,0.199712,0.171763,0.169478,0.17888,0.169198,0.154117,0.12095,0.117668,0.114993,0.0696393,0.063979,0.100053,0.08606,0.0920305,0.0835817,0.0826198,0.0992725,0.102571,0.100335,0.0993706,0.0911697,0.102918,0.0751697,0.0843186,0.0866893,0.100841,0.103825,0.104662,0.0943279,0.081235,0.0767931,0.0905165,0.0779742,0.0693449,0.079226,0.0883788,0.0999869,0.113877,0.108907,0.127117,0.110701,0.144418,0.118549,0.109047,0.115274,0.134644,0.140103,0.101224,0.136568,0.158149,0.182679,0.114724,0.104053,0.145727,0.163193,0.218072,0.266456,0.448658,0.420456,0.551709,0.426996,0.467993,1,1,1,0.805693,1,0.658968,0.449812,0.324027,0.0434417,0.0390746,0.0386801,0.0268103,0.0175069,0.0163211,0.0112803,0.0019819,0.000823391,7.1776e-05,3.3331e-05,4.63944e-05,0.00300934,nan,nan,nan,nan,nan,nan,nan,nan,nan,nan,nan,nan,nan,nan,nan,nan,nan,nan,nan,nan,nan,nan,nan,nan,nan,nan,nan,nan,nan,nan,nan,nan,nan,nan,nan,nan,nan,nan,nan,nan,nan,nan,nan,nan,nan,nan,nan,nan,nan,nan,nan,nan,nan,nan,nan,nan,nan,nan,nan,nan,nan,nan,nan,nan,nan,nan,nan,nan,nan,nan,nan,nan,nan,nan,nan,nan,nan,nan,nan,nan,nan,nan,nan,nan,nan,nan,nan,nan,nan,nan,nan,nan,nan,nan,nan,nan,nan,nan,nan,nan,nan,nan,nan,nan,nan,nan,nan,nan,nan,nan,nan,nan,nan,nan,nan,nan,nan,nan,nan,nan,nan,nan,nan,nan,nan,nan,nan,nan,nan,nan,nan,nan,nan,nan,nan,nan,nan,nan,nan,nan,nan,nan,nan,nan,nan,nan,nan,nan,nan,nan,nan,nan,nan,nan,nan,nan,nan,nan,nan,nan,nan,nan,nan,nan,nan,nan,nan,nan
1,0.466641,0.354846,0.267536,0.139725,0.156547,0.179317,0.182583,0.238921,0.248145,0.242799,0.217935,0.224933,0.168426,0.181479,0.152048,0.172045,0.199404,0.183233,0.186608,0.137151,0.137017,0.183594,0.158085,0.166238,0.159928,0.188281,0.176053,0.150784,0.136076,0.120366,0.168805,0.144075,0.143009,0.123914,0.154271,0.12675,0.15428,0.138554,0.155757,0.13411,0.134312,0.139134,0.123963,0.131174,0.12528,0.157513,0.163901,0.167208,0.164996,0.149746,0.1597,0.170527,0.150039,0.121617,0.145535,0.0928162,0.109127,0.0859652,0.0922007,0.0971612,0.0737216,0.101472,0.0874419,0.0749456,0.0942779,0.0684358,0.0816891,0.075153,0.0807278,0.0712934,0.0612733,0.0849045,0.0910394,0.10834,0.0812562,0.0800847,0.0817406,0.0818738,0.0998239,0.0867889,0.063706,0.0922983,0.0952832,0.0912083,0.0809712,0.0772211,0.0959334,0.111639,0.132946,0.117342,0.0911978,0.103795,0.117224,0.0992728,0.102448,0.0954375,0.114817,0.0827542,0.100652,0.0941816,0.103204,0.0842847,0.133389,0.190028,0.257145,0.461679,0.395917,0.502687,0.42116,0.493508,1,1,1,0.76812,1,1,0.501204,0.319849,0.109334,0.0473619,0.0517482,0.0316378,0.0243037,0.0253191,0.0192849,0.0160037,0.00747621,0.000823393,0.00139804,0.0091481,0.0651992,nan,nan,nan,nan,nan,nan,nan,nan,nan,nan,nan,nan,nan,nan,nan,nan,nan,nan,nan,nan,nan,nan,nan,nan,nan,nan,nan,nan,nan,nan,nan,nan,nan,nan,nan,nan,nan,nan,nan,nan,nan,nan,nan,nan,nan,nan,nan,nan,nan,nan,nan,nan,nan,nan,nan,nan,nan,nan,nan,nan,nan,nan,nan,nan,nan,nan,nan,nan,nan,nan,nan,nan,nan,nan,nan,nan,nan,nan,nan,nan,nan,nan,nan,nan,nan,nan,nan,nan,nan,nan,nan,nan,nan,nan,nan,nan,nan,nan,nan,nan,nan,nan,nan,nan,nan,nan,nan,nan,nan,nan,nan,nan,nan,nan,nan,nan,nan,nan,nan,nan,nan,nan,nan,nan,nan,nan,nan,nan,nan,nan,nan,nan,nan,nan,nan,nan,nan,nan,nan,nan,nan,nan,nan,nan,nan,nan,nan,nan,nan,nan,nan,nan,nan,nan,nan,nan,nan,nan,nan,nan,nan,nan,nan,nan,nan,nan,nan,nan
0.146373,0.406916,0.166645,0.13225,0.105526,0.173615,0.183888,0.243861,0.296537,0.277265,0.325103,0.208881,0.20754,0.180968,0.181861,0.177063,0.19974,0.184187,0.172479,0.175584,0.139316,0.172512,0.133435,0.147462,0.189546,0.193302,0.184536,0.182688,0.157325,0.164646,0.152974,0.145783,0.163164,0.175051,0.173416,0.169601,0.127852,0.13373,0.138932,0.159153,0.15145,0.152606,0.12543,0.106489,0.144155,0.149612,0.135765,0.141529,0.142834,0.148818,0.166048,0.19458,0.154759,0.178976,0.149062,0.116756,0.1293,0.103371,0.093421,0.0990047,0.0821105,0.094356,0.0746619,0.0669082,0.0788959,0.0873644,0.0640254,0.0700984,0.0833657,0.0613522,0.0716727,0.0705367,0.0819844,0.100469,0.0713996,0.0747241,0.0786364,0.100758,0.0995159,0.0797705,0.063073,0.0783926,0.122511,0.0759746,0.0896055,0.0990542,0.0783924,0.0924338,0.0971272,0.0924531,0.102368,0.0949121,0.0701441,0.105036,0.111758,0.104485,0.0814051,0.0636051,0.0589395,0.0692126,0.0507195,0.0511223,0.0625067,0.0957783,0.147527,0.230261,0.378131,0.411771,0.400048,0.395514,0.472924,1,1,1,1,0.791022,1,0.491816,0.282461,0.171736,0.0653242,0.0504911,0.0514253,0.0384825,0.04277,0.0237683,0.0164774,0.0242486,0.0113884,0.0470072,0.0651992,0.212713,nan,nan,nan,nan,nan,nan,nan,nan,nan,nan,nan,nan,nan,nan,nan,nan,nan,nan,nan,nan,nan,nan,nan,nan,nan,nan,nan,nan,nan,nan,nan,nan,nan,nan,nan,nan,nan,nan,nan,nan,nan,nan,nan,nan,nan,nan,nan,nan,nan,nan,nan,nan,nan,nan,nan,nan,nan,nan,nan,nan,nan,nan,nan,nan,nan,nan,nan,nan,nan,nan,nan,nan,nan,nan,nan,nan,nan,nan,nan,nan,nan,nan,nan,nan,nan,nan,nan,nan,nan,nan,nan,nan,nan,nan,nan,nan,nan,nan,nan,nan,nan,nan,nan,nan,nan,nan,nan,nan,nan,nan,nan,nan,nan,nan,nan,nan,nan,nan,nan,nan,nan,nan,nan,nan,nan,nan,nan,nan,nan,nan,nan,nan,nan,nan,nan,nan,nan,nan,nan,nan,nan,nan,nan,nan,nan,nan,nan,nan,nan,nan,nan,nan,nan,nan,nan,nan,nan,nan,nan,nan,nan,nan,nan,nan,nan,nan,nan,nan
0.171478,0.175563,0.129067,0.145616,0.156703,0.179324,0.189149,0.318617,0.403917,0.272457,0.288935,0.24977,0.199226,0.230575,0.173245,0.188173,0.153585,0.17075,0.179326,0.178226,0.149172,0.155848,0.141848,0.161286,0.171945,0.164407,0.1941,0.178943,0.189616,0.186374,0.159828,0.149265,0.151212,0.132097,0.138133,0.135036,0.175662,0.173702,0.125289,0.14101,0.127094,0.138044,0.11278,0.135802,0.128279,0.125941,0.117587,0.13207,0.134656,0.128724,0.150043,0.171638,0.154016,0.157911,0.129355,0.147733,0.127454,0.0901993,0.102406,0.0684406,0.0747303,0.0773457,0.0775624,0.0720287,0.0509924,0.049399,0.0602508,0.0405743,0.0607689,0.0430424,0.0436915,0.065734,0.0723802,0.0721502,0.0784329,0.0666958,0.0929256,0.0681382,0.078234,0.060137,0.07376,0.0775426,0.0851293,0.113356,0.0761856,0.0839916,0.0579425,0.0640574,0.0826952,0.0573805,0.0924675,0.0724518,0.0892338,0.0681936,0.0640338,0.0536909,0.0595639,0.0554059,0.0535178,0.0542996,0.0566105,0.0457429,0.0499334,0.081131,0.120763,0.213644,0.312951,0.34224,0.389935,0.41626,0.504088,1,1,1,1,0.869472,1,0.540127,0.277764,0.0787835,0.0458542,0.0350741,0.0462261,0.0407281,0.0484494,0.0443314,0.0510371,0.0446351,0.072367,0.118771,0.192448,0.227111,0.182677,0.355827,0.219424,0.0640026,nan,nan,nan,nan,nan,nan,nan,nan,nan,nan,nan,nan,nan,nan,nan,nan,nan,nan,nan,nan,nan,nan,nan,nan,nan,nan,nan,nan,0.0899809,0.0831101,0.0906481,0.0822944,0.0460454,0.0469705,0.022322,0.0739005,0.00246192,0.00119118,0.000384384,6.2916e-05,nan,nan,nan,nan,nan,nan,nan,nan,nan,nan,nan,nan,nan,nan,nan,nan,nan,nan,nan,nan,nan,nan,nan,nan,nan,nan,nan,nan,nan,nan,nan,nan,nan,nan,nan,nan,nan,nan,nan,nan,nan,nan,nan,nan,nan,nan,nan,nan,nan,nan,nan,nan,nan,nan,nan,nan,nan,nan,nan,nan,nan,nan,nan,nan,nan,nan,nan,nan,nan,nan,nan,nan,nan,nan,nan,nan,nan,nan,nan,nan,nan,nan,nan,nan,nan,nan,nan,nan,nan,nan,nan,nan,nan,nan,nan,nan,nan,nan,nan,nan,nan,nan,nan,nan,nan,nan,nan,nan,nan,nan,nan,nan,nan,nan,nan,nan,nan,nan,nan,nan,nan,nan,nan,nan
0.1444,0.178861,0.138181,0.163756,0.15259,0.158537,0.183839,0.304486,0.295638,0.402777,0.277659,0.291183,0.267874,0.249805,0.238345,0.231668,0.197055,0.167673,0.168218,0.150786,0.140862,0.151737,0.146357,0.18799,0.198169,0.189908,0.191217,0.205068,0.17655,0.222344,0.191601,0.157958,0.169816,0.160558,0.152058,0.181701,0.140524,0.128726,0.128238,0.131862,0.141116,0.126591,0.107156,0.108677,0.123423,0.112105,0.146519,0.129325,0.140995,0.139102,0.137481,0.182141,0.16937,0.152186,0.158408,0.114193,0.0944333,0.0788686,0.0925887,0.0629084,0.0883671,0.0751083,0.051577,0.0644862,0.0674334,0.0449671,0.0455549,0.0437617,0.0479716,0.0507998,0.0386689,0.0432283,0.0553395,0.0558951,0.0873611,0.0732182,0.068159,0.0723455,0.0593972,0.0627155,0.0584027,0.0721769,0.0751794,0.0649273,0.064202,0.070482,0.0659259,0.0409929,0.0478421,0.0537674,0.0559371,0.0698744,0.0506043,0.0762368,0.0666393,0.0488271,0.0612233,0.0592393,0.0555827,0.0479698,0.0544276,0.0631556,0.060463,0.0690533,0.0985788,0.193847,0.309396,0.288474,0.354392,0.461145,0.512439,1,1,1,0.894406,1,0.638744,0.487722,0.264362,0.0997869,0.0876473,0.0781632,0.0763783,0.0790323,0.0722273,0.0932096,0.0986332,0.100065,0.126526,0.164801,0.183733,0.194075,0.207046,0.230704,0.177672,0.0472936,0.0407007,nan,nan,nan,nan,nan,nan,nan,nan,nan,nan,nan,nan,nan,nan,nan,nan,nan,nan,nan,nan,nan,nan,nan,nan,nan,nan,0.0626155,0.0606576,0.0747557,0.0766169,0.0727432,0.0459041,0.0583547,0.0544109,0.051391,0.0385419,0.0303342,0.00119115,0.000384351,0.00014729,6.44558e-05,nan,nan,nan,nan,nan,nan,nan,nan,nan,nan,nan,nan,nan,nan,nan,nan,nan,nan,nan,nan,nan,nan,nan,nan,nan,nan,nan,nan,nan,nan,nan,nan,nan,nan,nan,nan,nan,nan,nan,nan,nan,nan,nan,nan,nan,nan,nan,nan,nan,nan,nan,nan,nan,nan,nan,nan,nan,nan,nan,nan,nan,nan,nan,nan,nan,nan,nan,nan,nan,nan,nan,nan,nan,nan,nan,nan,nan,nan,nan,nan,nan,nan,nan,nan,nan,nan,nan,nan,nan,nan,nan,nan,nan,nan,nan,nan,nan,nan,nan,nan,nan,nan,nan,nan,nan,nan,nan,nan,nan,nan,nan,nan,nan,nan,nan,nan,nan,nan,nan,nan,nan,nan
0.167249,0.187193,0.175639,0.131591,0.15147,0.195632,0.164036,0.264143,0.281269,0.290119,0.283694,0.230002,0.249215,0.269131,0.218667,0.208683,0.172091,0.202766,0.167301,0.136454,0.130269,0.147866,0.155823,0.163461,0.155403,0.213957,0.197556,0.231441,0.215312,0.203399,0.177385,0.174995,0.165884,0.207943,0.18167,0.154234,0.15359,0.151005,0.128672,0.144768,0.130327,0.15499,0.131604,0.133512,0.141995,0.111802,0.102848,0.129341,0.123944,0.138131,0.141856,0.149448,0.148049,0.174221,0.147455,0.135984,0.106663,0.0946578,0.0774231,0.0608786,0.0540999,0.0580255,0.0485524,0.0506954,0.0539572,0.0396802,0.0400269,0.0496849,0.0445654,0.0414227,0.0453507,0.0487039,0.0534112,0.0467977,0.0551458,0.0698817,0.0639133,0.0732478,0.0451188,0.0496351,0.0491086,0.0663742,0.0797063,0.0719763,0.0512997,0.0555639,0.0530591,0.036543,0.0331242,0.0531843,0.039628,0.0803543,0.0711728,0.0610286,0.0534912,0.0607374,0.0731703,0.0656006,0.0653602,0.0766952,0.0535509,0.0579854,0.0723537,0.0806977,0.112404,0.231289,0.257112,0.282341,0.372527,0.494991,0.579422,1,1,1,0.840522,1,0.621952,0.460719,0.237961,0.127469,0.0934828,0.10248,0.105029,0.127545,0.135927,0.134689,0.134635,0.128873,0.179455,0.170091,0.179403,0.170762,0.198954,0.183107,0.114401,0.0565831,0.0653582,0.0646562,nan,nan,nan,nan,nan,nan,nan,nan,nan,nan,nan,nan,nan,nan,nan,nan,nan,nan,nan,nan,nan,nan,nan,nan,0.0486239,0.0521247,0.0594305,0.067001,0.0551952,0.0530774,0.0489369,0.0502262,0.0476867,0.0511131,0.0540586,0.0510477,0.0458367,0.036805,0.00137985,0.0010899,nan,nan,nan,nan,nan,nan,nan,nan,nan,nan,nan,nan,nan,nan,nan,nan,nan,nan,nan,nan,nan,nan,nan,nan,nan,nan,nan,nan,nan,nan,nan,nan,nan,nan,nan,nan,nan,nan,nan,nan,nan,nan,nan,nan,nan,nan,nan,nan,nan,nan,nan,nan,nan,nan,nan,nan,nan,nan,nan,nan,nan,nan,nan,nan,nan,nan,nan,nan,nan,nan,nan,nan,nan,nan,nan,nan,nan,nan,nan,nan,nan,nan,nan,nan,nan,nan,nan,nan,nan,nan,nan,nan,nan,nan,nan,nan,nan,nan,nan,nan,nan,nan,nan,nan,nan,nan,nan,nan,nan,nan,nan,nan,nan,nan,nan,nan,nan,nan,nan,nan,nan,nan
0.156256,0.150873,0.144455,0.125285,0.162781,0.164161,0.167403,0.154937,0.259404,0.289377,0.250829,0.275068,0.252336,0.201334,0.26639,0.187772,0.18474,0.194104,0.143962,0.1778,0.183641,0.202446,0.154181,0.186157,0.235571,0.271587,0.243743,0.243782,0.26558,0.300918,0.259692,0.30406,0.289321,0.257666,0.259703,0.251209,0.270585,0.297289,0.319572,0.306107,0.326221,0.326618,0.320803,0.301164,0.320614,0.197555,0.184164,0.162319,0.12427,0.148971,0.116279,0.165245,0.147973,0.162138,0.156696,0.141803,0.0968267,0.08099,0.0721655,0.0595968,0.0571638,0.0619864,0.0449952,0.0493864,0.0568178,0.0468402,0.0350145,0.039955,0.0418038,0.0448903,0.0356199,0.0340004,0.0323492,0.0563041,0.0438791,0.0543115,0.0418562,0.0403714,0.032789,0.0524912,0.0469071,0.0402225,0.0614451,0.039848,0.0561547,0.0495982,0.046564,0.0374903,0.0520243,0.0489405,0.042742,0.0484103,0.0641272,0.0641937,0.0643962,0.0708952,0.073799,0.0822791,0.072839,0.0683078,0.070504,0.0863151,0.0907365,0.108982,0.127552,0.23636,0.295067,0.30169,0.444068,0.53578,1,1,1,1,0.843624,1,0.688294,0.450261,0.260446,0.194995,0.173942,0.173334,0.19193,0.188608,0.184513,0.210429,0.205533,0.197877,0.219323,0.220706,0.170963,0.169421,0.193505,0.140648,0.101356,0.0721321,0.0726379,0.069925,nan,nan,nan,nan,nan,nan,nan,nan,nan,nan,nan,nan,nan,nan,nan,nan,nan,nan,nan,0.0737476,nan,0.0629971,nan,nan,0.0562877,0.0714937,0.0586724,0.0633048,0.0482242,0.0533079,0.0613295,0.0613692,0.0621677,0.0651487,0.0680194,0.0520619,0.0518948,0.0545354,0.0413959,0.0442248,nan,nan,nan,nan,nan,nan,nan,nan,nan,nan,nan,nan,nan,nan,nan,nan,nan,nan,nan,nan,nan,nan,nan,nan,nan,nan,nan,nan,nan,nan,nan,nan,nan,nan,nan,nan,nan,nan,nan,nan,nan,nan,nan,nan,nan,nan,nan,nan,nan,nan,nan,nan,nan,nan,nan,nan,nan,nan,nan,nan,nan,nan,nan,nan,nan,nan,nan,nan,nan,nan,nan,nan,nan,nan,nan,nan,nan,nan,nan,nan,nan,nan,nan,nan,nan,nan,nan,nan,nan,nan,nan,nan,nan,nan,nan,nan,nan,nan,nan,nan,nan,nan,nan,nan,nan,nan,nan,nan,nan,nan,nan,nan,nan,nan,nan,nan,nan,nan,nan,nan,nan,nan
0.161074,0.159866,0.175517,0.115764,0.105269,0.126677,0.139711,0.119901,0.150438,0.256079,0.251812,0.228312,0.272418,0.281967,0.260742,0.197793,0.163277,0.157426,0.174653,0.143892,0.170709,0.159007,0.210258,0.190854,0.273693,0.295461,0.366278,0.447553,1,1,1,1,1,1,1,1,1,1,1,1,1,1,1,1,1,1,0.355092,0.348434,0.125349,0.119706,0.142588,0.139967,0.160566,0.146004,0.130353,0.150525,0.0871055,0.0842214,0.0590162,0.0719618,0.040909,0.0612871,0.0525364,0.0365145,0.0398889,0.0412267,0.0461051,0.0304844,0.0472425,0.0287716,0.0426658,0.0385331,0.0490263,0.0646348,0.0497591,0.0613005,0.0476038,0.0524989,0.0554137,0.035358,0.063367,0.0449141,0.0511519,0.0656698,0.0694181,0.0512793,0.0701419,0.0614258,0.0512446,0.060355,0.0601727,0.0682285,0.0666708,0.0652095,0.0836229,0.0818547,0.0849482,0.0848193,0.0952682,0.0901366,0.0858862,0.100487,0.103464,0.144758,0.184465,0.254558,0.302734,0.365467,0.553406,0.725735,1,1,1,1,1,1,0.669709,0.466737,0.265457,0.17495,0.167488,0.175016,0.18402,0.18613,0.159003,0.189749,0.171708,0.170246,0.214597,0.166925,0.206586,0.151703,0.189874,0.136277,0.0721845,0.079051,0.0686441,0.0861211,0.0630399,0.0596541,0.0517592,0.0543367,0.0526197,0.0403544,0.0424635,0.0389927,0.0341484,0.0376336,0.0291378,0.0265764,0.0276328,0.0178881,0.0181353,0.0199249,0.0234381,0.0525187,0.0549352,0.0521897,0.0604737,0.065189,0.0458622,0.051729,0.0468696,0.0476226,0.0529665,0.0528103,0.0514767,0.051393,0.066019,0.0665955,0.0693424,0.0700553,0.0708608,0.0683412,0.0539417,0.0582713,0.0512564,0.0527745,0.0547951,nan,nan,nan,nan,nan,nan,nan,nan,nan,nan,nan,nan,nan,nan,nan,nan,nan,nan,nan,nan,nan,nan,nan,nan,nan,nan,nan,nan,nan,nan,nan,nan,nan,nan,nan,nan,nan,nan,nan,nan,nan,nan,nan,nan,nan,nan,nan,nan,nan,nan,nan,nan,nan,nan,nan,nan,nan,nan,nan,nan,nan,nan,nan,nan,nan,nan,nan,nan,nan,nan,nan,nan,nan,nan,nan,nan,nan,nan,nan,nan,nan,nan,nan,nan,nan,nan,nan,nan,nan,nan,nan,nan,nan,nan,nan,nan,nan,nan,nan,nan,nan,nan,nan,nan,nan,nan,nan,nan,nan,nan,nan,nan,nan,nan,nan,nan,nan,nan,nan,nan,nan
0.150061,0.126798,0.110648,0.106201,0.0862755,0.0860283,0.0829543,0.142605,0.162898,0.184453,0.252568,0.265406,0.227614,0.273462,0.223634,0.212679,0.16588,0.181697,0.159444,0.106975,0.203774,0.200757,0.240927,0.320005,0.407113,0.599767,1,1,1,1,1,1,1,1,1,1,1,1,1,1,1,1,1,1,1,1,1,1,0.459315,0.144221,0.123847,0.163782,0.160198,0.156181,0.12961,0.110642,0.0889855,0.0762822,0.0721439,0.0615329,0.0504564,0.0607678,0.0353738,0.0359845,0.0487066,0.0504277,0.0483834,0.050893,0.0360566,0.0360264,0.0473405,0.0344206,0.0334299,0.0533153,0.0602832,0.0411175,0.0468355,0.0581289,0.046993,0.0484528,0.0420987,0.0482531,0.0583602,0.0733327,0.0561165,0.058996,0.0795978,0.058233,0.0716198,0.071865,0.0755841,0.0729019,0.0884339,0.0967156,0.0824324,0.0929501,0.103405,0.101078,0.117335,0.117382,0.106196,0.113332,0.105719,0.122217,0.154342,0.268378,0.303148,0.399813,0.564347,0.641292,1,1,1,1,1,1,0.598479,0.431496,0.23793,0.165701,0.178362,0.166059,0.174877,0.187408,0.172144,0.183767,0.201475,0.173983,0.181728,0.191912,0.163957,0.157936,0.167327,0.114138,0.0820632,0.0850043,0.0802031,0.0700201,0.0690333,0.0626059,0.0586324,0.0637776,0.0513171,0.0515269,0.0396147,0.0385469,0.0441987,0.0275529,0.0287641,0.0250137,0.0243356,0.0244084,0.0218492,0.021807,0.0260936,0.0320138,0.0586299,0.0577231,0.0693166,0.0416219,0.0459876,0.046263,0.048685,0.0568968,0.0630327,0.0469951,0.0526851,0.0503019,0.0486394,0.0556958,0.0501077,0.0614559,0.0621312,0.0635675,0.0615333,0.0573573,0.0560144,0.0541616,0.083061,nan,nan,nan,nan,nan,nan,nan,nan,nan,nan,nan,nan,nan,nan,nan,nan,nan,nan,nan,nan,nan,nan,nan,nan,nan,nan,nan,nan,nan,nan,nan,nan,nan,nan,nan,nan,nan,nan,nan,nan,nan,nan,nan,nan,nan,nan,nan,nan,nan,nan,nan,nan,nan,nan,nan,nan,nan,nan,nan,nan,nan,nan,nan,nan,nan,nan,nan,nan,nan,nan,nan,nan,nan,nan,nan,nan,nan,nan,nan,nan,nan,nan,nan,nan,nan,nan,nan,nan,nan,nan,nan,nan,nan,nan,nan,nan,nan,nan,nan,nan,nan,nan,nan,nan,nan,nan,nan,nan,nan,nan,nan,nan,nan,nan,nan,nan,nan,nan,nan,nan,nan
0.0868539,0.14052,0.0859995,0.0795657,0.0821768,0.0927965,0.108275,0.111329,0.171889,0.220354,0.195527,0.185215,0.155936,0.147407,0.165495,0.145686,0.137699,0.176788,0.128685,0.12786,0.148129,0.226372,0.285557,0.394512,0.526796,1,1,1,1,1,1,1,1,1,1,1,1,1,1,1,1,1,1,1,1,1,1,1,1,0.326701,0.113238,0.166815,0.149535,0.16159,0.151679,0.108499,0.121159,0.0761936,0.0734458,0.0529578,0.0540172,0.0499594,0.0415691,0.0329413,0.0308281,0.0464136,0.0576863,0.0525205,0.0447019,0.0315713,0.0283846,0.0316034,0.0311248,0.0387821,0.0400705,0.045583,0.0403412,0.0489963,0.0601074,0.0556821,0.051133,0.0523247,0.0565276,0.0804966,0.0697626,0.0706432,0.0755887,0.0691359,0.074157,0.0757689,0.0914256,0.089569,0.084403,0.0919744,0.101982,0.086812,0.0851925,0.0986641,0.0935339,0.097171,0.0949598,0.0917803,0.113747,0.128034,0.145827,0.254155,0.338212,0.430609,0.605933,0.675641,1,1,1,1,1,1,0.60135,0.425944,0.261872,0.151372,0.155627,0.160388,0.157842,0.17538,0.168259,0.159668,0.157744,0.164023,0.159632,0.152661,0.151145,0.151574,0.0843213,0.0778012,0.068782,0.0686191,0.0772175,0.0724743,0.0597355,0.048535,0.0507432,0.0527691,0.0463219,0.0459636,0.0399894,0.0296361,0.0275592,0.0310721,0.0251969,0.0254386,0.0233828,0.0232541,0.024444,0.0236227,0.0313455,0.0270629,0.0318541,0.0387834,0.0422091,0.0370683,0.0434904,0.044843,0.0442543,0.0436056,0.0582202,0.051232,0.0535874,0.0565979,0.0806699,0.0622531,0.0610573,0.0609063,0.0501514,0.0462587,0.0477221,0.0487452,0.0506069,0.044166,1,nan,nan,nan,nan,nan,nan,nan,nan,nan,nan,nan,nan,nan,nan,nan,nan,nan,nan,nan,nan,nan,nan,nan,nan,nan,nan,nan,nan,nan,nan,nan,nan,nan,nan,nan,nan,nan,nan,nan,nan,nan,nan,nan,nan,nan,nan,nan,nan,nan,nan,nan,nan,nan,nan,nan,nan,nan,nan,nan,nan,nan,nan,nan,nan,nan,nan,nan,nan,nan,nan,nan,nan,nan,nan,nan,nan,nan,nan,nan,nan,nan,nan,nan,nan,nan,nan,nan,nan,nan,nan,nan,nan,nan,nan,nan,nan,nan,nan,nan,nan,nan,nan,nan,nan,nan,nan,nan,nan,nan,nan,nan,nan,nan,nan,nan,nan,nan,nan,nan,nan,nan
0.0668115,0.0673822,0.0750493,0.0630407,0.0683839,0.0841617,0.112328,0.216519,0.272096,0.28902,0.315181,0.294338,0.183118,0.203315,0.209588,0.184575,0.177285,0.199231,0.168206,0.160789,0.161221,0.222111,0.288519,0.544618,0.718967,1,1,1,1,1,1,1,1,1,1,1,1,1,1,1,1,1,1,1,1,1,1,1,1,0.373357,0.126062,0.140066,0.162635,0.137804,0.141706,0.136562,0.0824278,0.0970097,0.0845254,0.0761811,0.0518555,0.0511895,0.0624738,0.0507554,0.0408737,0.0357052,0.0366474,0.0595704,0.0410302,0.0317004,0.0328969,0.0455806,0.0377788,0.0369121,0.0371367,0.0348789,0.0438443,0.0381368,0.0476135,0.0619383,0.0494645,0.0691008,0.0786522,0.0683443,0.0654641,0.0666714,0.0707454,0.072147,0.0887636,0.0900806,0.089114,0.0936164,0.0936486,0.0916863,0.101579,0.095766,0.0938918,0.102645,0.108394,0.113154,0.106135,0.10805,0.101367,0.10266,0.117761,0.181502,0.276205,0.350747,0.567588,0.668661,1,1,1,1,1,1,0.503385,0.269081,0.104077,0.086714,0.0856472,0.0817317,0.0760221,0.0757973,0.0815608,0.0852965,0.0821197,0.0701386,0.0991304,0.0914779,0.0711198,0.0754265,0.079816,0.0731673,0.0771929,0.0746226,0.0731843,0.0733075,0.0623073,0.062558,0.0601971,0.0470032,0.0502813,0.0321574,0.0345899,0.0344433,0.0277896,0.0352452,0.0245457,0.0248573,0.0242596,0.0251355,0.0245453,0.0235364,0.0265983,0.0391312,0.0360362,0.039381,0.0369495,0.0399248,0.0459038,0.0401682,0.0439851,0.0507147,0.0560391,0.0584376,0.0585416,0.0573338,0.0576305,0.0576179,0.0590533,0.057513,0.0579414,0.0589548,0.0550261,0.0519249,0.0493202,0.0523657,0.083061,nan,nan,nan,nan,nan,nan,nan,nan,nan,nan,nan,nan,nan,nan,nan,nan,nan,nan,nan,nan,nan,nan,nan,nan,nan,nan,nan,nan,nan,nan,nan,nan,nan,nan,nan,nan,nan,nan,nan,nan,nan,nan,nan,nan,nan,nan,nan,nan,nan,nan,nan,nan,nan,nan,nan,nan,nan,nan,nan,nan,nan,nan,nan,nan,nan,nan,nan,nan,nan,nan,nan,nan,nan,nan,nan,nan,nan,nan,nan,nan,nan,nan,nan,nan,nan,nan,nan,nan,nan,nan,nan,nan,nan,nan,nan,nan,nan,nan,nan,nan,nan,nan,nan,nan,nan,nan,nan,nan,nan,nan,nan,nan,nan,nan,nan,nan,nan,nan,nan,nan,nan
0.0873365,0.0706909,0.0741272,0.0744928,0.0838925,0.106354,0.244525,0.238228,0.308749,0.254708,0.258799,0.257261,0.268907,0.235436,0.2325,0.221447,0.251774,0.222274,0.181426,0.170495,0.228248,0.259347,0.485658,0.608399,0.770895,1,1,1,1,1,1,1,1,1,1,1,1,1,1,1,1,1,1,1,1,1,1,1,1,1,0.200603,0.148148,0.170289,0.158566,0.122066,0.13676,0.119851,0.0822654,0.0753459,0.0730711,0.0541022,0.071466,0.0516707,0.0483299,0.0400738,0.0469568,0.0524928,0.0491904,0.0315136,0.0277089,0.0272791,0.0331642,0.0295523,0.0287469,0.0417188,0.039298,0.0436563,0.0586039,0.0620252,0.064547,0.0672845,0.06619,0.0629356,0.0671454,0.0661182,0.0627384,0.0655714,0.0659859,0.0701796,0.0790427,0.085169,0.0919787,0.0886141,0.0893408,0.0878857,0.0959551,0.0792938,0.0688978,0.0733884,0.0716302,0.0732491,0.0729761,0.0710664,0.0769863,0.0888912,0.12314,0.223156,0.317987,0.482075,0.645499,1,1,1,1,1,0.603323,0.455039,0.269936,0.0990129,0.0606129,0.0577656,0.0653139,0.0556073,0.0550498,0.0614549,0.0569286,0.0518105,0.05386,0.0599952,0.0491784,0.0473103,0.0434905,0.0601354,0.0457742,0.0531214,0.0447443,0.045684,0.0467072,0.042284,0.0407036,0.0464012,0.0414737,0.0336353,0.0324484,0.0307217,0.0259157,0.0291278,0.0251967,0.0273354,0.0351931,0.0309361,0.0290944,0.0282937,0.0249092,0.033518,0.032125,0.0319664,0.0342388,0.0340715,0.0430742,0.0430482,0.0438575,0.0421339,0.04814,0.053498,0.0856198,0.0855515,0.0855146,0.0847605,0.0845388,0.0525818,0.0562994,0.0427768,0.0431245,0.0456288,0.0424147,0.0431442,0.0484493,1,nan,nan,nan,nan,nan,nan,nan,nan,nan,nan,nan,nan,nan,nan,nan,nan,nan,nan,nan,nan,nan,nan,nan,nan,nan,nan,nan,nan,nan,nan,nan,nan,nan,nan,nan,nan,nan,nan,nan,nan,nan,nan,nan,nan,nan,nan,nan,nan,nan,nan,nan,nan,nan,nan,nan,nan,nan,nan,nan,nan,nan,nan,nan,nan,nan,nan,nan,nan,nan,nan,nan,nan,nan,nan,nan,nan,nan,nan,nan,nan,nan,nan,nan,nan,nan,nan,nan,nan,nan,nan,nan,nan,nan,nan,nan,nan,nan,nan,nan,nan,nan,nan,nan,nan,nan,nan,nan,nan,nan,nan,nan,nan,nan,nan,nan,nan,nan,nan,nan,nan,nan
0.100165,0.0597106,0.120034,0.14102,0.123404,0.18365,0.265754,0.316527,0.302837,0.326016,0.395256,0.295436,0.289443,0.388712,0.44523,0.395683,0.333222,0.362915,0.391742,0.349533,0.369804,0.325346,0.511308,0.67711,1,1,1,1,1,1,1,1,1,1,1,1,1,1,1,1,1,1,1,1,1,1,1,1,1,1,0.334999,0.175689,0.18586,0.187188,0.138316,0.146004,0.125666,0.112794,0.111276,0.0764179,0.0884576,0.059133,0.0530636,0.0553384,0.0628103,0.068537,0.0454466,0.0545993,0.0398173,0.0358912,0.0324294,0.0262545,0.0418256,0.0336784,0.0235832,0.0399275,0.0364331,0.0307015,0.0454188,0.0452086,0.0553661,0.0632295,0.076347,0.0640861,0.0584298,0.0613774,0.0598534,0.0730993,0.0719638,0.0846519,0.0854097,0.0823708,0.0878761,0.0860565,0.0622369,0.0631263,0.0567108,0.0601273,0.0562608,0.0481044,0.0459152,0.0506984,0.0388893,0.0483119,0.0601979,0.0767907,0.140286,0.309453,0.467921,0.619264,0.647513,1,1,1,0.694988,0.584225,0.414605,0.226687,0.0769747,0.0393095,0.0329095,0.0383849,0.037065,0.0432596,0.02925,0.0397955,0.0405933,0.0339619,0.0364976,0.030958,0.034141,0.0321569,0.0320122,0.0466991,0.0457855,0.0593476,0.0587754,0.0505686,0.0525426,0.054266,0.0503712,0.042569,0.0390924,0.0407296,0.0406169,0.0270299,0.0260744,0.0384189,0.0342968,0.0318163,0.0361584,0.0356564,0.0452058,0.0447139,0.0341633,0.0440899,0.0456686,0.0463054,0.042499,0.047856,0.0455768,0.0548714,0.0533675,0.0493029,0.0629763,0.0735308,0.0732686,0.0764879,0.0834841,0.0710248,0.0716618,0.0781616,0.041384,0.0432166,0.040078,0.0402878,0.0391694,0.0412421,0.0414573,nan,nan,nan,nan,nan,nan,nan,nan,nan,nan,nan,nan,nan,nan,nan,nan,nan,nan,nan,nan,nan,nan,nan,nan,nan,nan,nan,nan,nan,nan,nan,nan,nan,nan,nan,nan,nan,nan,nan,nan,nan,nan,nan,nan,nan,nan,nan,nan,nan,nan,nan,nan,nan,nan,nan,nan,nan,nan,nan,nan,nan,nan,nan,nan,nan,nan,nan,nan,nan,nan,nan,nan,nan,nan,nan,nan,nan,nan,nan,nan,nan,nan,nan,nan,nan,nan,nan,nan,nan,nan,nan,nan,nan,nan,nan,nan,nan,nan,nan,nan,nan,nan,nan,nan,nan,nan,nan,nan,nan,nan,nan,nan,nan,nan,nan,nan,nan,nan,nan,nan,nan
0.207737,0.180859,0.201612,0.163502,0.177768,0.237613,0.309248,0.330772,0.408622,0.363448,0.410529,0.439746,0.452826,0.388386,0.427329,0.452437,0.364798,0.387312,0.37763,0.359202,0.372318,0.410293,0.451673,0.569073,1,1,1,1,1,1,1,1,1,1,1,1,1,1,1,1,1,1,1,1,1,1,1,1,1,1,0.3506,0.194662,0.152011,0.172794,0.141087,0.130146,0.122638,0.113471,0.121564,0.107913,0.0947744,0.0861451,0.0655466,0.0768837,0.0604885,0.0528548,0.0801568,0.0497091,0.0459145,0.0556545,0.0457393,0.0478915,0.0415808,0.0511001,0.0496378,0.052559,0.0642296,0.0413234,0.0406646,0.0481906,0.0449224,0.0495665,0.0477233,0.043775,0.0435566,0.0477373,0.0498675,0.0570363,0.0541253,0.0517187,0.0550946,0.0514622,0.0612309,0.058442,0.0438492,0.0480203,0.0425983,0.0372491,0.0410493,0.0345324,0.0432362,0.042521,0.0385211,0.0403409,0.0386035,0.0659868,0.129774,0.320994,0.403105,0.486277,0.528833,1,1,1,0.60132,0.544408,0.31891,0.16691,0.0952067,0.0389377,0.0335908,0.03149,0.0412011,0.0375621,0.0489224,0.0404714,0.0410827,0.0526831,0.0499843,0.0491295,0.0470816,0.0334804,0.0451026,0.0516026,0.0456524,0.0455727,0.0615552,0.0704286,0.0795614,0.0700195,0.0538831,0.0748545,0.0591161,0.0411323,0.035984,0.0371618,0.0601326,0.0551028,0.0562895,0.0609826,0.0541747,0.05531,0.0525315,0.0506632,0.053693,0.0552192,0.0593688,0.0602879,0.0541943,0.0673796,0.0594955,0.0653157,0.0540197,0.0549958,0.0991276,0.0825114,0.109416,0.108683,0.120623,0.101323,0.107589,0.0975537,0.100217,0.0892443,0.130063,0.0384498,0.0487764,0.0445107,1,nan,nan,nan,nan,nan,nan,nan,nan,nan,nan,nan,nan,nan,nan,nan,nan,nan,nan,nan,nan,nan,nan,nan,nan,nan,nan,nan,nan,nan,nan,nan,nan,nan,nan,nan,nan,nan,nan,nan,nan,nan,nan,nan,nan,nan,nan,nan,nan,nan,nan,nan,nan,nan,nan,nan,nan,nan,nan,nan,nan,nan,nan,nan,nan,nan,nan,nan,nan,nan,nan,nan,nan,nan,nan,nan,nan,nan,nan,nan,nan,nan,nan,nan,nan,nan,nan,nan,nan,nan,nan,nan,nan,nan,nan,nan,nan,nan,nan,nan,nan,nan,nan,nan,nan,nan,nan,nan,nan,nan,nan,nan,nan,nan,nan,nan,nan,nan,nan,nan,nan,nan
0.24196,0.263142,0.275061,0.358762,0.374504,0.402526,0.430239,0.415659,0.427594,0.496627,0.463165,0.450825,0.404015,0.423235,0.544849,0.41525,0.409181,0.503485,0.386998,0.463177,0.401871,0.453282,0.467459,0.660867,1,1,1,1,1,1,1,1,1,1,1,1,1,1,1,1,1,1,1,1,1,1,1,1,1,1,0.433438,0.184034,0.176391,0.171305,0.150435,0.123773,0.144585,0.111642,0.117585,0.124594,0.0912832,0.0930664,0.0941236,0.0830508,0.0839101,0.0902916,0.0763277,0.0827753,0.074145,0.073568,0.0622524,0.0599336,0.0509153,0.0536957,0.0487544,0.0510012,0.0589211,0.055331,0.0474406,0.0493213,0.0433603,0.0492014,0.0440911,0.0413413,0.0388316,0.0448837,0.0507755,0.0574408,0.0576553,0.0402572,0.0485242,0.050311,0.0535463,0.0490447,0.0470507,0.044234,0.0437989,0.0427634,0.0452331,0.0448151,0.0460394,0.0416442,0.0454069,0.0423123,0.0465151,0.0799693,0.13449,0.324771,0.408442,0.477419,0.503621,1,1,0.607256,0.504596,0.472568,0.340974,0.185002,0.0831802,0.0376775,0.0303159,0.0363503,0.0488294,0.0595724,0.0512749,0.0521624,0.059322,0.0469283,0.0658701,0.0490622,0.0544225,0.0521282,0.0516487,0.0591445,0.0771081,0.0571493,0.0620451,0.0872315,0.0723881,0.0797959,0.0689002,0.0591693,0.0532536,0.041736,0.0465925,0.0737354,0.0667375,0.0571939,0.0623305,0.0579026,0.0731533,0.0723548,0.0627119,0.0742684,0.0629387,0.0592355,0.0752389,0.0659739,0.0633572,0.0603697,0.0608477,0.068162,0.0585479,0.0694279,0.0872006,0.0889979,0.0908937,0.258255,0.293313,0.306133,0.118513,0.130254,0.155766,0.106689,0.14088,0.22047,0.0489154,0.0638846,0.0876023,nan,nan,nan,nan,nan,nan,nan,nan,nan,nan,nan,nan,nan,nan,nan,nan,nan,nan,nan,nan,nan,nan,nan,nan,nan,nan,nan,nan,nan,nan,nan,nan,nan,nan,nan,nan,nan,nan,nan,nan,nan,nan,nan,nan,nan,nan,nan,nan,nan,nan,nan,nan,nan,nan,nan,nan,nan,nan,nan,nan,nan,nan,nan,nan,nan,nan,nan,nan,nan,nan,nan,nan,nan,nan,nan,nan,nan,nan,nan,nan,nan,nan,nan,nan,nan,nan,nan,nan,nan,nan,nan,nan,nan,nan,nan,nan,nan,nan,nan,nan,nan,nan,nan,nan,nan,nan,nan,nan,nan,nan,nan,nan,nan,nan,nan,nan,nan,nan,nan,nan,nan
0.353906,0.405022,0.412777,0.411045,0.406379,0.405987,0.377382,0.480207,0.50914,0.503553,0.513457,0.557823,0.522361,0.543816,0.459347,0.531722,0.454714,0.440365,0.430524,0.411813,0.378342,0.436724,0.498526,1,1,1,1,1,1,1,1,1,1,1,1,1,1,1,1,1,1,1,1,1,1,1,1,1,1,1,0.427287,0.167465,0.176293,0.184784,0.160823,0.159029,0.121059,0.103201,0.0950563,0.0855621,0.0988861,0.0750092,0.0788761,0.0664933,0.0641797,0.0780455,0.0636446,0.0686269,0.0665066,0.0596205,0.0771773,0.0618539,0.0634511,0.0668942,0.0636363,0.0729476,0.0590084,0.0597157,0.0496082,0.0516475,0.0551134,0.0524726,0.053698,0.05436,0.0408437,0.0390764,0.036325,0.0455667,0.0433606,0.0402976,0.050405,0.0488006,0.0467275,0.04945,0.0552029,0.0566825,0.0601706,0.0547846,0.0551856,0.0549856,0.0498401,0.0606365,0.0509388,0.0567395,0.0398965,0.0726462,0.159527,0.304675,0.408455,0.475605,0.508688,1,1,0.562618,0.506925,0.485262,0.350306,0.201681,0.100483,0.0501967,0.0420156,0.039654,0.0415551,0.0521356,0.0471541,0.060583,0.0598442,0.0567005,0.0660594,0.0587887,0.0575264,0.0513037,0.0690055,0.0772663,0.07303,0.0594736,0.0800608,0.0759833,0.0770033,0.0889254,0.0726758,0.0679616,0.0504082,0.0411692,0.056341,0.0557454,0.0527525,0.0749901,0.073774,0.0685549,0.0717037,0.0857011,0.0846272,0.0923864,0.0916328,0.0814606,0.0800002,0.0946558,0.0926439,0.0929279,0.0980038,0.112434,0.121019,0.0734573,0.0997531,0.12545,0.263226,0.305092,0.322713,0.342913,0.362708,0.355015,0.371844,0.160994,0.151595,0.250255,0.0546032,0.0609553,0.014075,nan,nan,nan,nan,nan,nan,nan,nan,nan,nan,nan,nan,nan,nan,nan,nan,nan,nan,nan,nan,nan,nan,nan,nan,nan,nan,nan,nan,nan,nan,nan,nan,nan,nan,nan,nan,nan,nan,nan,nan,nan,nan,nan,nan,nan,nan,nan,nan,nan,nan,nan,nan,nan,nan,nan,nan,nan,nan,nan,nan,nan,nan,nan,nan,nan,nan,nan,nan,nan,nan,nan,nan,nan,nan,nan,nan,nan,nan,nan,nan,nan,nan,nan,nan,nan,nan,nan,nan,nan,nan,nan,nan,nan,nan,nan,nan,nan,nan,nan,nan,nan,nan,nan,nan,nan,nan,nan,nan,nan,nan,nan,nan,nan,nan,nan,nan,nan,nan,nan,nan,nan
0.456611,0.448668,0.410755,0.372255,0.459034,0.465563,0.481456,0.43429,0.532362,0.463684,0.487584,0.450629,0.527177,0.432747,0.452627,0.475066,0.478472,0.485674,0.522848,0.463377,0.461609,0.447712,0.599993,1,1,1,1,1,1,1,1,1,1,1,1,1,1,1,1,1,1,1,1,1,1,1,1,1,1,1,0.421177,0.179035,0.211212,0.221204,0.188135,0.146756,0.119933,0.125636,0.117384,0.124415,0.117135,0.0954429,0.0906434,0.0926441,0.085925,0.0834737,0.09305,0.0845013,0.086073,0.084265,0.0951252,0.0874796,0.0937641,0.0846704,0.083216,0.0867532,0.0678086,0.0740263,0.0684225,0.0541551,0.0545322,0.0604357,0.0586893,0.0548815,0.0489002,0.0523763,0.0487258,0.0583873,0.0436221,0.0518638,0.0677438,0.0667829,0.0443201,0.0503564,0.0459319,0.0471905,0.0620958,0.0410182,0.0525751,0.0621652,0.0490959,0.057366,0.0518363,0.0552817,0.0568963,0.100814,0.150901,0.317779,0.409552,0.450625,0.503649,1,1,0.58285,0.508818,0.478855,0.326307,0.19897,0.10038,0.057918,0.0422271,0.043066,0.0499284,0.0521385,0.0390984,0.0395779,0.0403556,0.0499988,0.0505441,0.0692686,0.074183,0.0658037,0.0631514,0.0582788,0.0700611,0.0689052,0.0732474,0.0784532,0.0841488,0.0719202,0.0621817,0.0563494,0.0557836,0.0455131,0.045774,0.0598731,0.0720882,0.0670659,0.0751485,0.0776061,0.0833429,0.0753126,0.0804141,0.0877575,0.10067,0.110485,0.116927,0.119355,0.119178,0.146174,0.136723,0.134081,0.142124,0.154986,0.166993,0.164262,0.300054,0.320048,0.348733,0.357778,0.370733,0.389056,0.391553,0.456009,0.247185,0.248409,0.0536996,0.0537289,0.0478113,nan,nan,nan,nan,nan,nan,nan,nan,nan,nan,nan,nan,nan,nan,nan,nan,nan,nan,nan,nan,nan,nan,nan,nan,nan,nan,nan,nan,nan,nan,nan,nan,nan,nan,nan,nan,nan,nan,nan,nan,nan,nan,nan,nan,nan,nan,nan,nan,nan,nan,nan,nan,nan,nan,nan,nan,nan,nan,nan,nan,nan,nan,nan,nan,nan,nan,nan,nan,nan,nan,nan,nan,nan,nan,nan,nan,nan,nan,nan,nan,nan,nan,nan,nan,nan,nan,nan,nan,nan,nan,nan,nan,nan,nan,nan,nan,nan,nan,nan,nan,nan,nan,nan,nan,nan,nan,nan,nan,nan,nan,nan,nan,nan,nan,nan,nan,nan,nan,nan,nan,nan
0.443248,0.442212,0.508278,0.397681,0.418503,0.506197,0.44543,0.476457,0.46005,0.45763,0.491457,0.424526,0.455648,0.462178,1,1,1,1,1,1,1,1,1,1,1,1,1,1,1,1,1,1,1,1,1,1,1,1,1,1,1,1,1,1,1,1,1,1,1,1,0.432063,0.270079,0.187345,0.166166,0.189783,0.179579,0.160243,0.141021,0.108732,0.0810884,0.0706654,0.0870969,0.0747435,0.0774224,0.0804259,0.092162,0.090793,0.0829503,0.0885644,0.0878377,0.0887086,0.0811131,0.0963306,0.0925842,0.0848596,0.0792879,0.0678393,0.0612139,0.0629308,0.0687214,0.069472,0.0605906,0.0640114,0.0611757,0.065175,0.0605793,0.0524465,0.0542492,0.0666035,0.0665495,0.0693658,0.069861,0.0666207,0.0516242,0.0506641,0.0435645,0.0475985,0.0524528,0.0521311,0.0571462,0.0626549,0.0568826,0.0515903,0.0372815,0.0469766,0.0734144,0.146023,0.331604,0.426209,0.459058,0.486851,1,1,0.590332,0.506176,0.50543,0.350126,0.204617,0.12088,0.0431572,0.0458692,0.0479514,0.0468768,0.0404054,0.0521721,0.0490556,0.0413827,0.050027,0.0643576,0.0621673,0.073462,0.0693086,0.0562983,0.0550615,0.0493316,0.0525563,0.0650978,0.062836,0.0733447,0.0611205,0.0718959,0.0578433,0.0602024,0.0645878,0.0588884,0.0518727,0.0582792,0.0717578,0.0684283,0.0745578,0.0663149,0.0588781,0.0640797,0.0987754,0.0862749,0.0758969,0.11853,0.11365,0.111095,0.132364,0.143221,0.154497,0.104653,0.113574,0.125289,0.140526,0.263896,0.276393,0.368407,0.381384,0.383524,0.417584,0.409573,0.396004,0.274201,0.278254,0.440531,0.065999,0.0144318,nan,nan,nan,nan,nan,nan,nan,nan,nan,nan,nan,nan,nan,nan,nan,nan,nan,nan,nan,nan,nan,nan,nan,nan,nan,nan,nan,nan,nan,nan,nan,nan,nan,nan,nan,nan,nan,nan,nan,nan,nan,nan,nan,nan,nan,nan,nan,nan,nan,nan,nan,nan,nan,nan,nan,nan,nan,nan,nan,nan,nan,nan,nan,nan,nan,nan,nan,nan,nan,nan,nan,nan,nan,nan,nan,nan,nan,nan,nan,nan,nan,nan,nan,nan,nan,nan,nan,nan,nan,nan,nan,nan,nan,nan,nan,nan,nan,nan,nan,nan,nan,nan,nan,nan,nan,nan,nan,nan,nan,nan,nan,nan,nan,nan,nan,nan,nan,nan,nan,nan,nan
0.531009,0.452768,0.428637,0.42837,0.41883,0.470726,0.531833,0.532917,0.481669,0.491763,1,1,1,0.633663,0.628762,1,0.615205,1,1,nan,nan,nan,1,1,1,1,1,1,1,1,1,1,1,1,1,1,1,1,1,1,1,1,1,1,1,1,1,1,1,1,0.389056,0.21265,0.193232,0.19524,0.17079,0.15804,0.144497,0.129551,0.11884,0.094512,0.0880327,0.0715108,0.0727437,0.0691455,0.0748611,0.0707782,0.0800802,0.0802315,0.0771492,0.0803448,0.082804,0.0861549,0.0728728,0.0620092,0.0675081,0.0647617,0.0642651,0.0647887,0.0687518,0.0556352,0.0579491,0.0450012,0.0472688,0.0465907,0.0490587,0.0462617,0.0410539,0.0426974,0.0458042,0.0500982,0.0750984,0.0592487,0.0667243,0.049003,0.0487114,0.0640332,0.0580761,0.0545755,0.0597132,0.0413851,0.0647543,0.0501613,0.0575185,0.0504142,0.0503506,0.0764153,0.146758,0.332998,0.404847,0.47111,0.512237,1,1,0.56465,0.512043,0.499103,0.34594,0.202092,0.103359,0.0453383,0.0439045,0.044142,0.0385193,0.0453378,0.0350668,0.037535,0.035448,0.043479,0.060432,0.0431798,0.051426,0.0462858,0.0438018,0.0359502,0.04171,0.0556149,0.049828,0.0657311,0.0703548,0.0530357,0.055158,0.0601167,0.0456473,0.052795,0.0487312,0.039397,0.0588467,0.07689,0.0827214,0.0546613,0.0682066,0.0685725,0.0811487,0.0672273,0.0892401,0.096447,0.104763,0.113121,0.10934,0.148918,0.144933,0.129753,0.109944,0.122161,0.147974,0.204012,0.224584,0.23891,0.297599,0.285186,0.388861,0.44802,0.429983,0.439116,0.290646,0.399809,0.0463652,0.0609636,0.0877683,nan,nan,nan,nan,nan,nan,nan,nan,nan,nan,nan,nan,nan,nan,nan,nan,nan,nan,nan,nan,nan,nan,nan,nan,nan,nan,nan,nan,nan,nan,nan,nan,nan,nan,nan,nan,nan,nan,nan,nan,nan,nan,nan,nan,nan,nan,nan,nan,nan,nan,nan,nan,nan,nan,nan,nan,nan,nan,nan,nan,nan,nan,nan,nan,nan,nan,nan,nan,nan,nan,nan,nan,nan,nan,nan,nan,nan,nan,nan,nan,nan,nan,nan,nan,nan,nan,nan,nan,nan,nan,nan,nan,nan,nan,nan,nan,nan,nan,nan,nan,nan,nan,nan,nan,nan,nan,nan,nan,nan,nan,nan,nan,nan,nan,nan,nan,nan,nan,nan,nan,nan
0.418775,0.443702,0.467824,1,1,1,1,1,1,1,1,1,1,0.374255,0.317663,0.337776,nan,nan,nan,nan,nan,nan,1,1,1,1,1,1,1,1,1,1,1,1,1,1,1,1,1,1,1,1,1,1,1,1,1,1,1,0.516574,0.234086,0.171959,0.174261,0.158739,0.144075,0.127299,0.114493,0.0988723,0.0807368,0.0657197,0.0592896,0.0546881,0.0598746,0.0608597,0.0640643,0.0551061,0.0559624,0.0529649,0.0658172,0.0617697,0.0646446,0.079866,0.0644717,0.0727361,0.0610802,0.0626813,0.0753384,0.0572126,0.0742713,0.0618107,0.0615952,0.0564749,0.0669208,0.0632417,0.0690509,0.0542727,0.0470112,0.0414677,0.0615036,0.0645748,0.0684759,0.0681895,0.0760016,0.0660016,0.0560839,0.0361174,0.0354316,0.0408513,0.0413538,0.0465065,0.046043,0.0403225,0.0404197,0.0460238,0.0441684,0.0824618,0.147711,0.314266,0.370759,0.455789,0.496734,1,1,0.571397,0.512624,0.481184,0.344635,0.196942,0.114256,0.0593071,0.0553787,0.0462963,0.0595648,0.0593108,0.0469395,0.0439317,0.0478184,0.0412547,0.0434713,0.0431726,0.0499828,0.0376444,0.0470934,0.0506635,0.049479,0.0550937,0.0611511,0.0578553,0.0747608,0.0647291,0.0621959,0.0786223,0.0866902,0.0565643,0.0582017,0.070701,0.0622458,0.0904276,0.0675381,0.113193,0.0796473,0.0872073,0.0948364,0.0754131,0.116025,0.0926455,0.113746,0.139969,0.132495,0.172301,0.157408,0.150477,0.123953,0.136804,0.16995,0.185705,0.196121,0.222176,0.268937,0.330697,0.458439,0.466542,0.501425,0.346874,0.371631,0.311708,0.0458709,0.0418103,nan,nan,nan,nan,nan,nan,nan,nan,nan,nan,nan,nan,nan,nan,nan,nan,nan,nan,nan,nan,nan,nan,nan,nan,nan,nan,nan,nan,nan,nan,nan,nan,nan,nan,nan,nan,nan,nan,nan,nan,nan,nan,nan,nan,nan,nan,nan,nan,nan,nan,nan,nan,nan,nan,nan,nan,nan,nan,nan,nan,nan,nan,nan,nan,nan,nan,nan,nan,nan,nan,nan,nan,nan,nan,nan,nan,nan,nan,nan,nan,nan,nan,nan,nan,nan,nan,nan,nan,nan,nan,nan,nan,nan,nan,nan,nan,nan,nan,nan,nan,nan,nan,nan,nan,nan,nan,nan,nan,nan,nan,nan,nan,nan,nan,nan,nan,nan,nan,nan,nan,nan,nan
0.451495,0.452604,1,1,1,1,1,1,1,1,1,0.325737,0.222706,0.272279,0.309683,0.305517,0.30204,1,1,0.50882,0.561318,0.461062,1,1,1,1,1,1,1,1,1,1,1,1,1,1,1,1,1,1,1,1,1,1,1,1,1,1,1,0.36832,0.226396,0.169696,0.157238,0.150012,0.157513,0.146241,0.101875,0.106119,0.0777912,0.0852098,0.0570447,0.0678984,0.069131,0.0746631,0.0543549,0.0558561,0.0736579,0.0762033,0.0834371,0.0791988,0.0911029,0.0571658,0.0626634,0.0649963,0.0637437,0.0515017,0.06011,0.0531652,0.0641822,0.0696071,0.0787386,0.0661683,0.0679735,0.0649574,0.070118,0.0632272,0.0671495,0.0481895,0.0528185,0.0700765,0.0655995,0.0701214,0.0493159,0.0429335,0.0375993,0.0442174,0.0564445,0.0655853,0.0577668,0.0616207,0.0599084,0.0572871,0.0533928,0.0344609,0.047331,0.0727668,0.146749,0.347014,0.380147,0.471282,0.506947,1,1,0.58637,0.52437,0.492798,0.349548,0.185572,0.0968047,0.0706079,0.0502993,0.0646929,0.0685783,0.0604044,0.0506401,0.0579473,0.0529481,0.0406984,0.0598761,0.0529762,0.0632682,0.0517101,0.066299,0.0455455,0.038058,0.0460056,0.0638107,0.0778559,0.0864506,0.0859066,0.0709822,0.0622209,0.0885995,0.0698953,0.0804133,0.0671372,0.074459,0.105632,0.0804619,0.0841421,0.0811066,0.085579,0.108863,0.0780218,0.109979,0.0816684,0.102947,0.155026,0.116904,0.172481,0.116686,0.160685,0.119304,0.134161,0.203654,0.207738,0.264009,0.222961,0.296771,0.412173,0.444472,0.469391,0.408909,0.505435,1,1,0.465323,1,0.0853301,nan,nan,nan,nan,nan,nan,nan,nan,nan,nan,nan,nan,nan,nan,nan,nan,nan,nan,nan,nan,nan,nan,nan,nan,nan,nan,nan,nan,nan,nan,nan,nan,nan,nan,nan,nan,nan,nan,nan,nan,nan,nan,nan,nan,nan,nan,nan,nan,nan,nan,nan,nan,nan,nan,nan,nan,nan,nan,nan,nan,nan,nan,nan,nan,nan,nan,nan,nan,nan,nan,nan,nan,nan,nan,nan,nan,nan,nan,nan,nan,nan,nan,nan,nan,nan,nan,nan,nan,nan,nan,nan,nan,nan,nan,nan,nan,nan,nan,nan,nan,nan,nan,nan,nan,nan,nan,nan,nan,nan,nan,nan,nan,nan,nan,nan,nan,nan,nan,nan,nan,nan
1,1,1,1,1,1,1,1,nan,nan,1,0.29477,0.407815,0.315009,0.610106,0.494747,0.544739,0.546394,0.57477,0.519011,0.507444,0.3405,0.474605,1,1,1,1,1,1,1,1,1,1,1,1,1,1,1,1,1,1,1,1,1,1,1,1,1,0.493349,0.366139,0.170448,0.171549,0.176144,0.158096,0.152074,0.134319,0.0926652,0.0871311,0.0886678,0.0611787,0.0720126,0.0712371,0.0655078,0.0577718,0.0582383,0.0567631,0.0623267,0.071504,0.0805628,0.0885445,0.0852494,0.0805612,0.0820094,0.0622482,0.0510419,0.0634889,0.0682765,0.0706686,0.0755504,0.0758615,0.0548876,0.0576366,0.0638355,0.062738,0.0583403,0.0507662,0.0480735,0.045164,0.033913,0.0326069,0.040213,0.0472138,0.0434683,0.0584982,0.0528773,0.0568091,0.0484811,0.0533857,0.0648872,0.0603264,0.0467844,0.0544862,0.0438653,0.0417436,0.0403719,0.0773809,0.141066,0.32842,0.384114,0.458333,0.495408,1,1,0.557844,0.524448,0.477499,0.34937,0.19135,0.100283,0.0720388,0.0604085,0.0717041,0.0626283,0.0789963,0.0613683,0.0486064,0.052258,0.0492696,0.0472416,0.0629457,0.0845359,0.0791498,0.0641281,0.0643412,0.0735591,0.0633575,0.0797545,0.0774282,0.114604,0.10876,0.0952627,0.0994729,0.103578,0.0967045,0.069713,0.101842,0.0814599,0.111017,0.0945111,0.0941786,0.124683,0.0992617,0.137788,0.0825489,0.0791531,0.136741,0.0978331,0.12111,0.16303,0.148938,0.138666,0.123787,0.157288,0.170202,0.16794,0.163143,0.228477,0.290794,0.312847,0.379661,0.423333,0.498692,0.545428,1,1,1,1,1,1,nan,nan,nan,nan,nan,nan,nan,nan,nan,nan,nan,nan,nan,nan,nan,nan,nan,nan,nan,nan,nan,nan,nan,nan,nan,nan,nan,nan,nan,nan,nan,nan,nan,nan,nan,nan,nan,nan,nan,nan,nan,nan,nan,nan,nan,nan,nan,nan,nan,nan,nan,nan,nan,nan,nan,nan,nan,nan,nan,nan,nan,nan,nan,nan,nan,nan,nan,nan,nan,nan,nan,nan,nan,nan,nan,nan,nan,nan,nan,nan,nan,nan,nan,nan,nan,nan,nan,nan,nan,nan,nan,nan,nan,nan,nan,nan,nan,nan,nan,nan,nan,nan,nan,nan,nan,nan,nan,nan,nan,nan,nan,nan,nan,nan,nan,nan,nan,nan,nan,nan,nan
1,nan,1,1,1,1,1,1,1,1,1,1,1,0.493097,0.440056,0.384112,0.317741,0.27936,0.24885,0.225479,0.240576,0.255324,0.211734,1,1,1,1,1,1,1,1,1,1,1,1,1,1,1,1,1,1,1,1,1,1,1,0.540458,0.455914,0.338348,0.174132,0.155705,0.14702,0.143844,0.12462,0.115934,0.116478,0.0951472,0.0743182,0.0691866,0.0827483,0.0722698,0.065447,0.0713406,0.0617307,0.0539801,0.0664881,0.0600937,0.0629391,0.0603274,0.0714666,0.0660016,0.0813484,0.060459,0.051586,0.0497188,0.0483166,0.0635295,0.052942,0.0657951,0.0512266,0.0553341,0.0428969,0.0470809,0.055322,0.0648695,0.059426,0.0470042,0.0478248,0.0441135,0.038207,0.0411793,0.0380659,0.0563878,0.0546248,0.0584583,0.0591003,0.0658168,0.0507925,0.0661869,0.0423971,0.0436271,0.0574283,0.0523926,0.0532039,0.0455475,0.0772317,0.130619,0.317131,0.379808,0.45187,0.528284,1,1,0.556924,0.512564,0.496933,0.343925,0.19082,0.105771,0.0809944,0.0662891,0.0680311,0.0765669,0.0767334,0.0702467,0.0750071,0.0789088,0.064879,0.0607188,0.0761204,0.069211,0.0981249,0.126485,0.0942293,0.10532,0.070487,0.0808287,0.136989,0.148942,0.153448,0.138717,0.139353,0.124359,0.11508,0.119405,0.103377,0.118056,0.0902406,0.0819125,0.128805,0.0920583,0.117244,0.104525,0.107109,0.0800582,0.087272,0.0895168,0.134103,0.110572,0.115666,0.134267,0.111491,0.149894,0.153863,0.17781,0.192273,0.234425,0.270561,0.338356,0.40676,0.520399,0.532191,1,1,1,1,1,1,1,nan,nan,nan,nan,nan,nan,nan,nan,nan,nan,nan,nan,nan,nan,nan,nan,nan,nan,nan,nan,nan,nan,nan,nan,nan,nan,nan,nan,nan,nan,nan,nan,nan,nan,nan,nan,nan,nan,nan,nan,nan,nan,nan,nan,nan,nan,nan,nan,nan,nan,nan,nan,nan,nan,nan,nan,nan,nan,nan,nan,nan,nan,nan,nan,nan,nan,nan,nan,nan,nan,nan,nan,nan,nan,nan,nan,nan,nan,nan,nan,nan,nan,nan,nan,nan,nan,nan,nan,nan,nan,nan,nan,nan,nan,nan,nan,nan,nan,nan,nan,nan,nan,nan,nan,nan,nan,nan,nan,nan,nan,nan,nan,nan,nan,nan,nan,nan,nan,nan,nan,nan
1,1,1,1,1,1,1,1,1,1,1,1,1,1,0.341997,0.250443,0.27406,0.250842,0.242026,0.228754,0.195699,0.255777,0.23737,0.291738,1,1,1,1,1,1,1,1,1,1,1,1,1,1,1,1,1,0.414694,0.373143,0.330892,0.375889,0.386919,0.273539,0.316371,0.329571,0.16725,0.188603,0.17248,0.167431,0.154642,0.134187,0.109783,0.082065,0.0831777,0.0677834,0.076468,0.0461605,0.0454937,0.0485402,0.0502904,0.0579663,0.0605737,0.04844,0.0464896,0.0476107,0.0474908,0.062439,0.0501144,0.0520214,0.0589349,0.0628184,0.0582289,0.0500089,0.0718179,0.0696863,0.0668314,0.0689206,0.0634218,0.0507173,0.0482009,0.0558778,0.06303,0.0603458,0.041429,0.039851,0.0357061,0.0450113,0.0535395,0.0502711,0.0516312,0.0643123,0.0560253,0.0564047,0.0582758,0.0554126,0.0586634,0.0555685,0.0633978,0.0537555,0.0536183,0.0412705,0.0693986,0.131742,0.305928,0.378015,0.43071,0.539415,1,1,0.587309,0.527221,0.510083,0.364233,0.187282,0.142714,0.0758622,0.0780648,0.0757718,0.0722612,0.0785116,0.0575357,0.0744257,0.0636758,0.0692952,0.0797481,0.0705189,0.0929816,0.0788332,0.0804949,0.108558,0.11225,0.106396,0.111157,0.102598,0.097419,0.153175,0.151326,0.146465,0.123298,0.105787,0.0968424,0.0909941,0.116819,0.0947985,0.108369,0.0952843,0.0831236,0.13714,0.0859134,0.11522,0.0909703,0.103903,0.0898357,0.101977,0.108991,0.156633,0.160489,0.120261,0.176334,0.154157,0.191241,0.201622,0.327778,0.263387,0.339798,0.498362,0.567811,0.640212,1,1,1,1,1,1,1,nan,nan,nan,nan,nan,nan,nan,nan,nan,nan,nan,nan,nan,nan,nan,nan,nan,nan,nan,nan,nan,nan,nan,nan,nan,nan,nan,nan,nan,nan,nan,nan,nan,nan,nan,nan,nan,nan,nan,nan,nan,nan,nan,nan,nan,nan,nan,nan,nan,nan,nan,nan,nan,nan,nan,nan,nan,nan,nan,nan,nan,nan,nan,nan,nan,nan,nan,nan,nan,nan,nan,nan,nan,nan,nan,nan,nan,nan,nan,nan,nan,nan,nan,nan,nan,nan,nan,nan,nan,nan,nan,nan,nan,nan,nan,nan,nan,nan,nan,nan,nan,nan,nan,nan,nan,nan,nan,nan,nan,nan,nan,nan,nan,nan,nan,nan,nan,nan,nan,nan,nan
