0.537231,0.535539,0.5324,0.527678,0.538341,0.521675,0.488341,0.488341,0.488341,0.488341,0.488341,0.488341,0.458341,0.452627,0.438341,0.438341,0.430656,0.438341,0.438341,0.438341,0.405008,0.388341,0.388341,0.388341,0.352928,0.35977,0.288341,0.308341,0.288341,0.288341,0.310251,0.338341,0.313341,0.338341,0.316958,0.310648,0.302309,0.352627,0.313341,0.297423,0.288341,0.313341,0.288341,0.30187,0.288341,0.288341,0.288341,0.289358,0.30174,0.325817,0.330135,0.348341,0.288341,0.255008,0.338341,0.344033,0.363341,0.388341,0.356523,0.330008,0.338341,0.338341,0.325841,0.338341,0.338341,0.338341,0.325841,0.331198,0.310563,0.276803,0.288341,0.250841,0.282786,0.288341,0.280008,0.288341,0.271675,0.283341,0.288341,0.288341,0.281198,0.288341,0.288341,0.278341,0.288341,0.288341,0.288341,0.288341,0.288341,0.288341,0.288341,0.288341,0.288341,0.288341,0.288341,0.288341,0.288341,0.288341,0.288341,0.288341,0.288341,0.288341,0.288341,0.288341,0.288341,0.288341,0.288341,0.288341,0.288341,0.288341,0.288341,0.288341,0.300841,0.313341,0.313341,0.302627,0.288341,0.288341,0.288341,0.338341,0.288341,0.247127,0.188341,0.101978,-0.0491588,-0.0262484,-0.0576754,-0.111659,-0.0616588,-0.0866588,-0.0866587,-0.0902302,-0.097373,-0.101659,-0.0934769,-0.0699921,-0.0616588,-0.0616588,-0.0616588,-0.0616588,-0.0616588,-0.0616588,-0.0616588,-0.0616588,-0.0616588,-0.0616588,-0.0616588,-0.0616588,-0.0616588,-0.0616588,-0.0616588,-0.0616588,-0.0616588,-0.0616588,-0.08153,-0.0845957,-0.0861521,-0.0869107,-0.086338,-0.0825478,-0.0754531,-0.0682588,-0.0638397,-0.0616588,-0.0620037,-0.0621487,-0.0622496,-0.0625136,-0.0616588,-0.0633597,-0.0629446,-0.0616588,-0.0617992,-0.0616588,-0.0616588,-0.0616588,-0.0616588,-0.0616588,-0.0616588,nan,nan,nan,nan,nan,nan,nan,nan,nan,nan,nan,nan,nan,nan,nan,nan,nan,nan,nan,nan,nan,nan,nan,nan,nan,nan,nan,nan,nan,nan,nan,nan,nan,nan,nan,nan,nan,nan,nan,nan,nan,nan,nan,nan,nan,nan,nan,nan,nan,nan,nan,nan,nan,nan,nan,nan,nan,nan,nan,nan,nan,nan,nan,nan,nan,nan,nan,nan,nan,nan,nan,nan,nan,nan,nan,nan,nan,nan,nan,nan,nan,nan,nan,nan,nan,nan,nan,nan,nan,nan,nan,nan,nan,nan,nan,nan,nan,nan,nan,nan,nan,nan,nan,nan,nan,nan,nan,nan,nan,nan,nan,nan,nan,nan,nan,nan,nan,nan,nan,nan,nan
0.526465,0.520474,0.516395,0.513207,0.538341,0.496675,0.488341,0.488341,0.488341,0.488341,0.463341,0.438341,0.438341,0.438341,0.438341,0.438341,0.438341,0.438341,0.438341,0.418341,0.305008,0.271675,0.388341,0.388341,0.388341,0.360563,0.280008,0.301978,0.288341,0.288341,0.338341,0.310091,0.315736,0.317006,0.310762,0.294094,0.284968,0.315614,0.263341,0.289151,0.288341,0.288341,0.288341,0.288341,0.289541,0.288341,0.288341,0.288876,0.295828,0.310656,0.317895,0.338341,0.313341,0.338341,0.328179,0.339607,0.338341,0.328341,0.338341,0.363341,0.300841,0.338341,0.338341,0.338341,0.318341,0.338341,0.313341,0.305008,0.288341,0.268341,0.288341,0.288341,0.288341,0.288341,0.278341,0.288341,0.288341,0.288341,0.288341,0.280008,0.288341,0.282091,0.288341,0.288341,0.280008,0.275841,0.288341,0.288341,0.288341,0.288341,0.288341,0.288341,0.288341,0.288341,0.288341,0.288341,0.288341,0.288341,0.288341,0.288341,0.288341,0.288341,0.288341,0.288341,0.288341,0.288341,0.288341,0.288341,0.288341,0.288341,0.288341,0.288341,0.288341,0.288341,0.305008,0.299452,0.305008,0.288341,0.288341,0.288341,0.305008,0.243672,0.200841,0.0675079,-0.0116588,-0.0616588,-0.0616588,-0.0676161,-0.0705426,-0.0721008,-0.0746279,-0.0782263,-0.0817633,-0.0833509,-0.081427,-0.0766282,-0.0714789,-0.0676705,-0.0652444,-0.0636898,-0.0629936,-0.0633345,-0.0642731,-0.0649763,-0.0650936,-0.0650478,-0.0655399,-0.0668585,-0.0687847,-0.0711475,-0.0742301,-0.0616588,-0.0616588,-0.111659,-0.111659,-0.111659,-0.111659,-0.111659,-0.111659,-0.111659,-0.0866588,-0.0616588,-0.0616588,-0.0616588,-0.0616588,-0.0616588,-0.0616588,-0.0616588,-0.0636663,-0.0640441,-0.0616588,-0.0616588,-0.0616588,-0.0616984,-0.0616588,-0.0616588,-0.0616588,-0.0616588,nan,nan,nan,nan,nan,nan,nan,nan,nan,nan,nan,nan,nan,nan,nan,nan,nan,nan,nan,nan,nan,nan,nan,nan,nan,nan,nan,nan,nan,nan,nan,nan,nan,nan,nan,nan,nan,nan,nan,nan,nan,nan,nan,nan,nan,nan,nan,nan,nan,nan,nan,nan,nan,nan,nan,nan,nan,nan,nan,nan,nan,nan,nan,nan,nan,nan,nan,nan,nan,nan,nan,nan,nan,nan,nan,nan,nan,nan,nan,nan,nan,nan,nan,nan,nan,nan,nan,nan,nan,nan,nan,nan,nan,nan,nan,nan,nan,nan,nan,nan,nan,nan,nan,nan,nan,nan,nan,nan,nan,nan,nan,nan,nan,nan,nan,nan,nan,nan,nan,nan,nan,nan
0.499047,0.497634,0.498584,0.499189,0.488341,0.488341,0.488341,0.488341,0.488341,0.475841,0.438341,0.438341,0.438341,0.438341,0.438341,0.263341,0.438341,0.438341,0.366913,0.350841,0.388341,0.388341,0.36681,0.358328,0.438341,0.330447,0.268341,0.288341,0.288341,0.288341,0.288341,0.299205,0.301917,0.296685,0.281017,0.267598,0.261769,0.221675,0.255008,0.277108,0.288341,0.302627,0.248341,0.296675,0.288341,0.288341,0.288341,0.287357,0.290072,0.297301,0.313341,0.338341,0.275841,0.338341,0.325973,0.336126,0.338341,0.338341,0.333796,0.263341,0.338341,0.321675,0.338341,0.338341,0.300841,0.318341,0.307091,0.288341,0.302627,0.282786,0.288341,0.288341,0.288341,0.288341,0.288341,0.288341,0.288341,0.275841,0.288341,0.258341,0.27723,0.278341,0.288341,0.288341,0.271675,0.274056,0.271675,0.288341,0.288341,0.288341,0.288341,0.281198,0.288341,0.288341,0.288341,0.288341,0.288341,0.288341,0.288341,0.288341,0.288341,0.288341,0.288341,0.288341,0.288341,0.288341,0.288341,0.288341,0.288341,0.288341,0.288341,0.288341,0.288341,0.288341,0.288341,0.288341,0.288341,0.294591,0.288341,0.288341,0.288341,0.288341,0.209175,0.124056,0.0406763,-0.0179476,-0.0533417,-0.0616588,-0.0616588,-0.0616588,-0.0679713,-0.0699265,-0.0720058,-0.0733018,-0.0727861,-0.070523,-0.0683057,-0.0675064,-0.0677506,-0.0685313,-0.0711811,-0.0761181,-0.0806697,-0.0821141,-0.0805041,-0.0782089,-0.077378,-0.078382,-0.0616588,-0.0616588,-0.0616588,-0.111659,-0.111659,-0.111659,-0.111659,-0.111659,-0.111659,-0.111659,-0.111659,-0.0816588,-0.0616588,-0.0616588,-0.0616588,-0.0616588,-0.0616588,-0.0616588,-0.0642061,-0.0616588,-0.0616588,-0.0783254,-0.0616588,-0.0632901,-0.0622669,-0.0617512,-0.0616595,-0.0616588,-0.0616588,-0.0616588,nan,nan,nan,nan,nan,nan,nan,nan,nan,nan,nan,nan,nan,nan,nan,nan,nan,nan,nan,nan,nan,nan,nan,nan,nan,nan,nan,nan,nan,nan,nan,nan,nan,nan,nan,nan,nan,nan,nan,nan,nan,nan,nan,nan,nan,nan,nan,nan,nan,nan,nan,nan,nan,nan,nan,nan,nan,nan,nan,nan,nan,nan,nan,nan,nan,nan,nan,nan,nan,nan,nan,nan,nan,nan,nan,nan,nan,nan,nan,nan,nan,nan,nan,nan,nan,nan,nan,nan,nan,nan,nan,nan,nan,nan,nan,nan,nan,nan,nan,nan,nan,nan,nan,nan,nan,nan,nan,nan,nan,nan,nan,nan,nan,nan,nan,nan,nan,nan,nan,nan,nan,nan
0.485008,0.486948,0.488341,0.488341,0.488341,0.488341,0.488341,0.488341,0.488341,0.458341,0.438341,0.438341,0.438341,0.438341,0.438341,0.407398,0.438341,0.421675,0.361068,0.318341,0.388341,0.363568,0.354066,0.335983,0.316408,0.267508,0.255008,0.205008,0.288341,0.288341,0.288341,0.284385,0.275541,0.261754,0.255804,0.251333,0.242895,0.238341,0.288341,0.261096,0.338341,0.319591,0.298341,0.255008,0.288341,0.288341,0.283963,0.288341,0.284435,0.288341,0.288341,0.288341,0.302765,0.312013,0.325813,0.332267,0.338341,0.328071,0.338341,0.338341,0.325841,0.308341,0.338341,0.332091,0.302627,0.338341,0.315614,0.330008,0.297432,0.288341,0.288341,0.282091,0.288341,0.288341,0.288341,0.288341,0.282786,0.282786,0.288341,0.282091,0.278341,0.27723,0.275841,0.270159,0.288341,0.278341,0.274056,0.268341,0.281198,0.282091,0.288341,0.288341,0.288341,0.288341,0.288341,0.288341,0.288341,0.288341,0.288341,0.288341,0.288341,0.288341,0.288341,0.288341,0.288341,0.288341,0.288341,0.288341,0.288341,0.288341,0.288341,0.288341,0.288341,0.288341,0.288341,0.288341,0.288341,0.288341,0.288341,0.293341,0.295484,0.316913,0.221675,0.144591,-0.0616588,-0.0616588,-0.0578554,-0.0663808,-0.0661788,-0.0616588,-0.0616588,-0.0616588,-0.0616588,-0.0657804,-0.0658552,-0.0664285,-0.0687248,-0.0737889,-0.0809055,-0.0873981,-0.0926381,-0.0974527,-0.100387,-0.0998313,-0.0962643,-0.0616588,-0.0616588,-0.0616588,-0.0949921,-0.111659,-0.0991587,-0.111659,-0.111659,-0.111659,-0.111659,-0.111659,-0.0866588,-0.0616588,-0.0616588,-0.0616588,-0.0616588,-0.0616588,-0.0616588,-0.0653463,-0.0665103,-0.0741588,-0.0699921,-0.0616588,-0.0616588,-0.0648326,-0.0648282,-0.063894,-0.0626024,-0.0618148,-0.0616655,-0.0616588,-0.0616588,-0.0616588,nan,nan,nan,nan,nan,nan,nan,nan,nan,nan,nan,nan,nan,nan,nan,nan,nan,nan,nan,nan,nan,nan,nan,nan,nan,nan,nan,nan,nan,nan,nan,nan,nan,nan,nan,nan,nan,nan,nan,nan,nan,nan,nan,nan,nan,nan,nan,nan,nan,nan,nan,nan,nan,nan,nan,nan,nan,nan,nan,nan,nan,nan,nan,nan,nan,nan,nan,nan,nan,nan,nan,nan,nan,nan,nan,nan,nan,nan,nan,nan,nan,nan,nan,nan,nan,nan,nan,nan,nan,nan,nan,nan,nan,nan,nan,nan,nan,nan,nan,nan,nan,nan,nan,nan,nan,nan,nan,nan,nan,nan,nan,nan,nan,nan,nan,nan,nan,nan,nan,nan,nan,nan
0.46804,0.476223,0.482435,0.486376,0.488341,0.488341,0.488341,0.488341,0.474705,0.450841,0.438341,0.380008,0.438341,0.438341,0.438341,0.397128,0.355008,0.394591,0.382091,0.363341,0.388341,0.35556,0.339815,0.320578,0.188341,0.284175,0.338341,0.138341,0.288341,0.288341,0.288341,0.271453,0.258959,0.249258,0.238341,0.247102,0.288341,0.22471,0.0383412,0.247152,0.26509,0.305008,0.238341,0.250841,0.288341,0.288341,0.288341,0.279852,0.288341,0.258341,0.288341,0.288341,0.28902,0.303876,0.323344,0.326403,0.338341,0.338341,0.325841,0.288341,0.338341,0.263341,0.302627,0.338341,0.338341,0.288341,0.324056,0.328341,0.288341,0.274056,0.288341,0.288341,0.288341,0.280008,0.278341,0.288341,0.280008,0.275841,0.288341,0.288341,0.271675,0.275841,0.266913,0.288341,0.25977,0.280008,0.263341,0.268341,0.268341,0.27723,0.271675,0.288341,0.269591,0.263341,0.288341,0.271675,0.288341,0.288341,0.288341,0.288341,0.288341,0.288341,0.288341,0.288341,0.288341,0.288341,0.288341,0.288341,0.288341,0.288341,0.288341,0.288341,0.288341,0.288341,0.288341,0.288341,0.288341,0.288341,0.288341,0.288341,0.288341,0.242753,0.288341,0.0454841,-0.0616588,-0.0616588,-0.0616588,-0.0616588,-0.0616588,-0.0616588,-0.0688069,-0.0682841,-0.0616588,-0.0616588,-0.0616588,-0.0616588,-0.0616588,-0.0796711,-0.0870983,-0.0927457,-0.0963865,-0.0994158,-0.111659,-0.111659,-0.111659,-0.111659,-0.111659,-0.111659,-0.111659,-0.111659,-0.111659,-0.0616588,-0.0949921,-0.0916588,-0.111659,-0.0949921,-0.0616588,-0.0616588,-0.0616588,-0.0616588,-0.0616588,-0.0641033,-0.0716588,-0.0616588,-0.0916587,-0.0616588,-0.0671061,-0.065296,-0.0645963,-0.0649507,-0.0653819,-0.0651305,-0.0647464,-0.0669986,-0.0737978,-0.0814517,-0.0870112,-0.0866588,nan,nan,nan,nan,nan,nan,nan,nan,nan,nan,nan,nan,nan,nan,nan,nan,nan,nan,nan,nan,nan,nan,nan,nan,nan,nan,nan,nan,nan,nan,nan,nan,nan,nan,nan,nan,nan,nan,nan,nan,nan,nan,nan,nan,nan,nan,nan,nan,nan,nan,nan,nan,nan,nan,nan,nan,nan,nan,nan,nan,nan,nan,nan,nan,nan,nan,nan,nan,nan,nan,nan,nan,nan,nan,nan,nan,nan,nan,nan,nan,nan,nan,nan,nan,nan,nan,nan,nan,nan,nan,nan,nan,nan,nan,nan,nan,nan,nan,nan,nan,nan,nan,nan,nan,nan,nan,nan,nan,nan,nan,nan,nan,nan,nan,nan,nan,nan,nan,nan,nan,nan,nan
0.449249,0.459911,0.471416,0.488341,0.488341,0.488341,0.488341,0.488341,0.480008,0.438341,0.438341,0.438341,0.433341,0.413341,0.388341,0.400841,0.300841,0.388341,0.380008,0.358341,0.354304,0.346544,0.338341,0.338341,0.338341,0.338341,0.338341,0.338341,0.256523,0.288341,0.288341,0.238341,0.263341,0.243086,0.238341,0.288341,0.288341,0.0883413,0.231392,0.245782,0.300841,0.138341,0.288341,0.150841,0.258366,0.288341,0.238341,0.288341,0.288341,0.278341,0.255008,0.288341,0.274829,0.292461,0.31593,0.338341,0.321675,0.238341,0.321675,0.324056,0.338341,0.338341,0.338341,0.332786,0.324056,0.338341,0.318341,0.299452,0.288341,0.288341,0.288341,0.281198,0.271675,0.274056,0.278341,0.269591,0.27038,0.267508,0.288341,0.263341,0.268341,0.255008,0.266119,0.255008,0.244591,0.252627,0.266913,0.255008,0.246675,0.258341,0.265614,0.258341,0.263341,0.261069,0.263341,0.269591,0.263341,0.271675,0.288341,0.288341,0.288341,0.288341,0.288341,0.288341,0.288341,0.288341,0.288341,0.288341,0.288341,0.288341,0.288341,0.288341,0.288341,0.288341,0.288341,0.288341,0.288341,0.288341,0.288341,0.288341,0.288341,0.313341,0.181198,0.0772301,-0.0616588,-0.0741588,-0.0902302,-0.0866588,-0.0616588,-0.0616588,-0.0616588,-0.0616588,-0.0616588,-0.0616588,-0.0616588,-0.0616588,-0.0616588,-0.0866588,-0.0916587,-0.0916587,-0.0949921,-0.097373,-0.0949921,-0.111659,-0.111659,-0.111659,-0.111659,-0.111659,-0.111659,-0.0991587,-0.0949921,-0.0616588,-0.0616588,-0.0866588,-0.101659,-0.0866588,-0.0949921,-0.0616588,-0.0741588,-0.0616588,-0.0616588,-0.0616588,-0.0664349,-0.0699057,-0.0720097,-0.0715104,-0.0695473,-0.0680972,-0.0683334,-0.0706217,-0.0764286,-0.0880026,-0.101241,-0.108836,-0.111198,-0.111659,-0.111659,-0.111659,nan,nan,nan,nan,nan,nan,nan,nan,nan,nan,nan,nan,nan,nan,nan,nan,nan,nan,nan,nan,nan,nan,nan,nan,nan,nan,nan,nan,nan,nan,nan,nan,nan,nan,nan,nan,nan,nan,nan,nan,nan,nan,nan,nan,nan,nan,nan,nan,nan,nan,nan,nan,nan,nan,nan,nan,nan,nan,nan,nan,nan,nan,nan,nan,nan,nan,nan,nan,nan,nan,nan,nan,nan,nan,nan,nan,nan,nan,nan,nan,nan,nan,nan,nan,nan,nan,nan,nan,nan,nan,nan,nan,nan,nan,nan,nan,nan,nan,nan,nan,nan,nan,nan,nan,nan,nan,nan,nan,nan,nan,nan,nan,nan,nan,nan,nan,nan,nan,nan,nan,nan,nan
0.441188,0.447002,0.438341,0.469807,0.479179,0.481827,0.488341,0.488341,0.463341,0.438341,0.438341,0.381198,0.432091,0.405008,0.388341,0.388341,0.388341,0.355008,0.338341,0.338341,0.355008,0.338341,0.338341,0.338341,0.338341,0.294591,0.218341,0.288341,0.274056,0.238341,0.288341,0.263341,0.238341,0.238341,0.238341,0.238341,0.247642,0.246923,0.288341,0.288341,0.288341,0.252627,0.255008,0.268341,0.250098,0.263341,0.263712,0.288341,0.263341,0.250841,0.246675,0.238341,0.265668,0.281346,0.304889,0.338341,0.313341,0.310316,0.288341,0.318341,0.338341,0.32925,0.338341,0.338341,0.338341,0.321675,0.338341,0.338341,0.296675,0.288341,0.263341,0.282091,0.238341,0.281198,0.271675,0.275841,0.246675,0.238341,0.255008,0.238341,0.255008,0.238341,0.257091,0.238341,0.238341,0.245484,0.250841,0.266119,0.249452,0.248341,0.25977,0.257572,0.246675,0.263341,0.257091,0.238341,0.252627,0.255008,0.263341,0.288341,0.288341,0.288341,0.288341,0.281198,0.269591,0.288341,0.288341,0.288341,0.288341,0.288341,0.288341,0.288341,0.288341,0.288341,0.288341,0.288341,0.288341,0.288341,0.288341,0.288341,0.288341,0.288341,0.0883413,0.16911,0.0184741,-0.111659,-0.111659,-0.111659,-0.111659,-0.111659,-0.104516,-0.101659,-0.100548,-0.092428,-0.0962741,-0.0940117,-0.097373,-0.0949921,-0.0980224,-0.100548,-0.0949921,-0.0991587,-0.097373,-0.0908254,-0.0934769,-0.0916588,-0.083881,-0.0741588,-0.0616588,-0.0616588,-0.0783254,-0.0616588,-0.0616588,-0.0616588,-0.0741588,-0.0866588,-0.0916587,-0.111659,-0.0791356,-0.073065,-0.0693017,-0.0703829,-0.0757719,-0.081814,-0.0846419,-0.0844995,-0.0854626,-0.0900177,-0.0960868,-0.102502,-0.108196,-0.110918,-0.111562,-0.111659,-0.111659,-0.111659,-0.111659,-0.111659,nan,nan,nan,nan,nan,nan,nan,nan,nan,nan,nan,nan,nan,nan,nan,nan,nan,nan,nan,nan,nan,nan,nan,nan,nan,nan,nan,nan,nan,nan,nan,nan,nan,nan,nan,nan,nan,nan,nan,nan,nan,nan,nan,nan,nan,nan,nan,nan,nan,nan,nan,nan,nan,nan,nan,nan,nan,nan,nan,nan,nan,nan,nan,nan,nan,nan,nan,nan,nan,nan,nan,nan,nan,nan,nan,nan,nan,nan,nan,nan,nan,nan,nan,nan,nan,nan,nan,nan,nan,nan,nan,nan,nan,nan,nan,nan,nan,nan,nan,nan,nan,nan,nan,nan,nan,nan,nan,nan,nan,nan,nan,nan,nan,nan,nan,nan,nan,nan,nan,nan,nan,nan
0.438341,0.438341,0.447026,0.457668,0.469311,0.474216,0.488341,0.488341,0.407091,0.438341,0.388341,0.446675,0.428341,0.400841,0.388341,0.313341,0.35977,0.350841,0.338341,0.338341,0.355008,0.299452,0.338341,0.327893,0.338341,0.298341,0.113341,0.313341,0.213341,0.288341,0.238341,0.258341,0.238341,0.138341,0.238341,0.238341,0.288341,0.288341,0.262923,0.205008,0.288341,0.244591,0.238341,0.238341,0.271675,0.200841,0.238341,0.288341,0.288341,0.268341,0.269591,0.250841,0.263341,0.270833,0.291487,0.300841,0.288341,0.338341,0.308607,0.315615,0.321065,0.338341,0.318341,0.305008,0.288341,0.338341,0.338341,0.313341,0.278341,0.288341,0.250841,0.280008,0.271675,0.263341,0.258341,0.280008,0.258341,0.238341,0.256523,0.238341,0.238341,0.238341,0.248341,0.244591,0.238341,0.238341,0.238341,0.238341,0.238341,0.248341,0.252627,0.25977,0.265614,0.238341,0.238341,0.258341,0.238341,0.250841,0.25977,0.255008,0.271675,0.274056,0.258341,0.268341,0.288341,0.288341,0.288341,0.288341,0.288341,0.288341,0.288341,0.288341,0.288341,0.288341,0.288341,0.288341,0.288341,0.288341,0.288341,0.288341,0.288341,0.288341,0.238341,0.138341,-0.0616588,-0.0616588,-0.0691233,-0.0831542,-0.0873766,-0.088566,-0.0883854,-0.0869074,-0.0847373,-0.0830778,-0.0826467,-0.0838712,-0.0866396,-0.0896501,-0.0866588,-0.0866588,-0.0916588,-0.0866588,-0.0783254,-0.0616588,-0.0616588,-0.0616588,-0.0616588,-0.0616588,-0.0616588,-0.0616588,-0.0616588,-0.0616588,-0.0818258,-0.0857232,-0.0902459,-0.0940812,-0.0963707,-0.0967983,-0.0951547,-0.0921588,-0.0909329,-0.0942538,-0.0999969,-0.104397,-0.106347,-0.107114,-0.108425,-0.110049,-0.110999,-0.11142,-0.111616,-0.111659,-0.111659,-0.111659,-0.111659,-0.111659,-0.111659,-0.111659,nan,nan,nan,nan,nan,nan,nan,nan,nan,nan,nan,nan,nan,nan,nan,nan,nan,nan,nan,nan,nan,nan,nan,nan,nan,nan,nan,nan,nan,nan,nan,nan,nan,nan,nan,nan,nan,nan,nan,nan,nan,nan,nan,nan,nan,nan,nan,nan,nan,nan,nan,nan,nan,nan,nan,nan,nan,nan,nan,nan,nan,nan,nan,nan,nan,nan,nan,nan,nan,nan,nan,nan,nan,nan,nan,nan,nan,nan,nan,nan,nan,nan,nan,nan,nan,nan,nan,nan,nan,nan,nan,nan,nan,nan,nan,nan,nan,nan,nan,nan,nan,nan,nan,nan,nan,nan,nan,nan,nan,nan,nan,nan,nan,nan,nan,nan,nan,nan,nan,nan,nan,nan
0.438517,0.438341,0.442933,0.450667,0.463341,0.463341,0.488341,0.438341,0.381198,0.463341,0.455008,0.438341,0.383341,0.308341,0.388341,0.363341,0.338341,0.338341,0.338341,0.338341,0.338341,0.338341,0.338341,0.338341,0.338341,0.302627,0.213341,0.230008,0.261069,0.246804,0.238341,0.275841,0.238341,0.238341,0.238341,0.238341,0.238341,0.288341,0.288341,0.288341,0.225841,0.238341,0.171675,0.288341,0.255008,0.228341,0.238341,0.288341,0.288341,0.288341,0.278341,0.255008,0.271675,0.260456,0.288341,0.292456,0.288341,0.296515,0.293904,0.296845,0.304033,0.306733,0.288341,0.288341,0.288341,0.288341,0.313341,0.278341,0.288341,0.283796,0.268341,0.258341,0.273341,0.256447,0.260563,0.246675,0.266913,0.238341,0.238341,0.255008,0.238341,0.238341,0.238341,0.238341,0.238341,0.238341,0.238341,0.238341,0.238341,0.238341,0.238341,0.238341,0.258341,0.260563,0.238341,0.238341,0.257091,0.246675,0.238341,0.263341,0.238341,0.257091,0.271675,0.258341,0.248341,0.288341,0.278341,0.288341,0.288341,0.288341,0.288341,0.288341,0.288341,0.288341,0.288341,0.288341,0.288341,0.288341,0.288341,0.280043,0.288341,0.288341,0.171675,0.171675,-0.0616588,-0.0616588,-0.0616588,-0.0616588,-0.084299,-0.087364,-0.088189,-0.0872348,-0.0853217,-0.0838598,-0.0843162,-0.0873639,-0.0909121,-0.0922916,-0.0921519,-0.0916706,-0.0906222,-0.0881245,-0.0842625,-0.0805528,-0.0783512,-0.0778271,-0.0786798,-0.0807685,-0.0836625,-0.0867183,-0.0897036,-0.0928345,-0.111659,-0.0996639,-0.10262,-0.104981,-0.106789,-0.111659,-0.108429,-0.108387,-0.108502,-0.109315,-0.110389,-0.111659,-0.111401,-0.111473,-0.111555,-0.111634,-0.111659,-0.111659,-0.111659,-0.111659,-0.111659,-0.111659,-0.111659,-0.111659,-0.111659,-0.111659,-0.111659,nan,nan,nan,nan,nan,nan,nan,nan,nan,nan,nan,nan,nan,nan,nan,nan,nan,nan,nan,nan,nan,nan,nan,nan,nan,nan,nan,nan,nan,nan,nan,nan,nan,nan,nan,nan,nan,nan,nan,nan,nan,nan,nan,nan,nan,nan,nan,nan,nan,nan,nan,nan,nan,nan,nan,nan,nan,nan,nan,nan,nan,nan,nan,nan,nan,nan,nan,nan,nan,nan,nan,nan,nan,nan,nan,nan,nan,nan,nan,nan,nan,nan,nan,nan,nan,nan,nan,nan,nan,nan,nan,nan,nan,nan,nan,nan,nan,nan,nan,nan,nan,nan,nan,nan,nan,nan,nan,nan,nan,nan,nan,nan,nan,nan,nan,nan,nan,nan,nan,nan,nan
0.438181,0.438988,0.438341,0.438341,0.438341,0.488341,0.488341,0.438341,0.442527,0.463341,0.438341,0.431198,0.400841,0.388341,0.333341,0.338341,0.338341,0.250841,0.360563,0.338341,0.293897,0.338341,0.338341,0.338341,0.338341,0.338341,0.308341,0.238341,0.243897,0.238341,0.238341,0.188341,0.188341,0.238341,0.238341,0.238341,0.250213,0.288341,0.288341,0.263341,0.288341,0.250841,0.238341,0.238341,0.255008,0.163341,0.225841,0.288341,0.246675,0.238341,0.238341,0.238341,0.238341,0.238341,0.261463,0.277517,0.288341,0.276355,0.266951,0.266897,0.277584,0.288606,0.293562,0.288341,0.288341,0.288341,0.288341,0.288341,0.288341,0.278341,0.255008,0.238341,0.258341,0.238341,0.238341,0.238341,0.238341,0.238341,0.238341,0.238341,0.238341,0.238341,0.238341,0.238341,0.238341,0.238341,0.238341,0.238341,0.238341,0.238341,0.238341,0.238341,0.238341,0.238341,0.238341,0.238341,0.238341,0.257091,0.243897,0.238341,0.255008,0.250841,0.257091,0.271675,0.263341,0.246675,0.238341,0.250841,0.271675,0.288341,0.271675,0.274056,0.266913,0.238341,0.288341,0.288341,0.278341,0.288341,0.288341,0.288341,0.256628,0.288341,0.0216746,0.0716746,-0.0071133,-0.0554088,-0.0569406,-0.111659,-0.0616588,-0.0866588,-0.0886247,-0.0870577,-0.0847713,-0.0828747,-0.0839514,-0.0901479,-0.0977342,-0.100514,-0.0985629,-0.0956867,-0.0934098,-0.0907214,-0.0878288,-0.0868339,-0.0883472,-0.0912526,-0.0945527,-0.0976286,-0.100096,-0.111659,-0.111659,-0.111659,-0.111659,-0.111659,-0.111659,-0.111659,-0.111659,-0.111659,-0.111659,-0.111659,-0.111659,-0.111659,-0.111659,-0.111659,-0.111659,-0.111659,-0.111659,-0.111659,-0.111659,-0.111659,-0.111659,-0.111659,-0.111659,-0.111659,-0.111659,-0.111659,-0.111659,-0.111659,nan,nan,nan,nan,nan,nan,nan,nan,nan,nan,nan,nan,nan,nan,nan,nan,nan,nan,nan,nan,nan,nan,nan,nan,nan,nan,nan,nan,nan,nan,nan,nan,nan,nan,nan,nan,nan,nan,nan,nan,nan,nan,nan,nan,nan,nan,nan,nan,nan,nan,nan,nan,nan,nan,nan,nan,nan,nan,nan,nan,nan,nan,nan,nan,nan,nan,nan,nan,nan,nan,nan,nan,nan,nan,nan,nan,nan,nan,nan,nan,nan,nan,nan,nan,nan,nan,nan,nan,nan,nan,nan,nan,nan,nan,nan,nan,nan,nan,nan,nan,nan,nan,nan,nan,nan,nan,nan,nan,nan,nan,nan,nan,nan,nan,nan,nan,nan,nan,nan,nan,nan,nan
0.434427,0.437221,0.438341,0.438341,0.453063,0.459858,0.458246,0.438341,0.435244,0.458341,0.438341,0.373341,0.308341,0.355008,0.363341,0.338341,0.358341,0.278341,0.350841,0.305008,0.288341,0.338341,0.338341,0.328589,0.338341,0.311069,0.288341,0.288341,0.238341,0.238341,0.238341,0.155008,0.155008,0.221406,0.238341,0.238111,0.238341,0.188341,0.271675,0.288341,0.205008,0.205008,0.238341,0.238341,0.238341,0.138341,0.238139,0.275841,0.188341,0.238341,0.238341,0.238341,0.238341,0.238341,0.243263,0.254351,0.257573,0.251835,0.238341,0.238341,0.288341,0.288341,0.288341,0.288341,0.296675,0.303341,0.295484,0.288341,0.288341,0.273341,0.238341,0.238341,0.238341,0.238341,0.238341,0.238341,0.238341,0.238341,0.238341,0.238341,0.238341,0.238341,0.238341,0.238341,0.238341,0.238341,0.238341,0.238341,0.238341,0.238341,0.238341,0.238341,0.238341,0.238341,0.239551,0.238341,0.238341,0.238341,0.244591,0.238341,0.238341,0.238341,0.238341,0.246675,0.245484,0.238341,0.238341,0.238341,0.288341,0.263341,0.238341,0.238341,0.288341,0.238341,0.238341,0.250841,0.267508,0.268341,0.255008,0.258341,0.252356,0.288341,0.166267,0.112151,0.0383412,-0.0298406,-0.0616588,-0.0840662,-0.0935044,-0.0954386,-0.0866588,-0.0616588,-0.0866588,-0.0616588,-0.0903252,-0.0957971,-0.102663,-0.107354,-0.108865,-0.108431,-0.107664,-0.107002,-0.106539,-0.10671,-0.107373,-0.108107,-0.10873,-0.111659,-0.111659,-0.111659,-0.111659,-0.111659,-0.111659,-0.111659,-0.111659,-0.111659,-0.111659,-0.111659,-0.111659,-0.111659,-0.111659,-0.111659,-0.111659,-0.111659,-0.111659,-0.111659,-0.111659,-0.111659,-0.111659,-0.111659,-0.111659,-0.111659,-0.111659,-0.111659,-0.111659,-0.111659,-0.111659,-0.111659,nan,nan,nan,nan,nan,nan,nan,nan,nan,nan,nan,nan,nan,nan,nan,nan,nan,nan,nan,nan,nan,nan,nan,nan,nan,nan,nan,nan,nan,nan,nan,nan,nan,nan,nan,nan,nan,nan,nan,nan,nan,nan,nan,nan,nan,nan,nan,nan,nan,nan,nan,nan,nan,nan,nan,nan,nan,nan,nan,nan,nan,nan,nan,nan,nan,nan,nan,nan,nan,nan,nan,nan,nan,nan,nan,nan,nan,nan,nan,nan,nan,nan,nan,nan,nan,nan,nan,nan,nan,nan,nan,nan,nan,nan,nan,nan,nan,nan,nan,nan,nan,nan,nan,nan,nan,nan,nan,nan,nan,nan,nan,nan,nan,nan,nan,nan,nan,nan,nan,nan,nan,nan
0.416557,0.427922,0.435484,0.44129,0.447919,0.452099,0.445609,0.431305,0.41628,0.401372,0.35977,0.369591,0.338341,0.345484,0.338341,0.338341,0.388341,0.307091,0.281198,0.281198,0.338341,0.328258,0.338341,0.324458,0.304106,0.270484,0.188341,0.216119,0.188341,0.238341,0.213341,0.238341,0.215946,0.223556,0.238341,0.238341,0.238341,0.238341,0.238341,0.288341,0.288341,0.198341,0.238341,0.238341,0.238341,0.230417,0.240174,0.288341,0.278341,0.238341,0.238341,0.238341,0.228341,0.225005,0.224174,0.228819,0.234068,0.236405,0.239527,0.238341,0.238341,0.268677,0.288341,0.288341,0.308341,0.321675,0.288341,0.288341,0.288341,0.251978,0.238341,0.238341,0.238341,0.238341,0.238341,0.238341,0.238341,0.238341,0.238341,0.238341,0.238341,0.238341,0.238341,0.238341,0.238341,0.238341,0.223341,0.230008,0.228341,0.238341,0.238341,0.238341,0.238341,0.238341,0.238341,0.238521,0.238341,0.238341,0.238341,0.238341,0.238341,0.238341,0.238341,0.238341,0.238341,0.238341,0.238341,0.238341,0.238341,0.238341,0.238341,0.238341,0.238341,0.263341,0.255008,0.238341,0.248341,0.238341,0.25977,0.263341,0.238341,0.238341,0.238341,0.172716,0.0683412,-0.0866588,-0.111659,-0.101659,-0.111659,-0.101659,-0.111659,-0.0866588,-0.111659,-0.0963987,-0.0616588,-0.0866588,-0.111659,-0.111659,-0.110987,-0.111472,-0.11151,-0.111488,-0.111453,-0.111438,-0.111659,-0.111659,-0.111659,-0.111659,-0.111659,-0.111659,-0.111659,-0.111659,-0.111659,-0.111659,-0.111659,-0.111659,-0.111659,-0.111659,-0.111659,-0.111659,-0.111659,-0.111659,-0.111659,-0.111659,-0.111659,-0.111659,-0.111659,-0.111659,-0.111659,-0.111659,-0.111659,-0.111659,-0.111659,-0.111659,-0.111659,-0.111659,-0.111659,-0.111659,nan,nan,nan,nan,nan,nan,nan,nan,nan,nan,nan,nan,nan,nan,nan,nan,nan,nan,nan,nan,nan,nan,nan,nan,nan,nan,nan,nan,nan,nan,nan,nan,nan,nan,nan,nan,nan,nan,nan,nan,nan,nan,nan,nan,nan,nan,nan,nan,nan,nan,nan,nan,nan,nan,nan,nan,nan,nan,nan,nan,nan,nan,nan,nan,nan,nan,nan,nan,nan,nan,nan,nan,nan,nan,nan,nan,nan,nan,nan,nan,nan,nan,nan,nan,nan,nan,nan,nan,nan,nan,nan,nan,nan,nan,nan,nan,nan,nan,nan,nan,nan,nan,nan,nan,nan,nan,nan,nan,nan,nan,nan,nan,nan,nan,nan,nan,nan,nan,nan,nan,nan,nan
0.396185,0.405465,0.416212,0.422465,0.420595,0.41364,0.407514,0.401763,0.393808,0.438341,0.369591,0.338341,0.338341,0.338341,0.363341,0.375841,0.375841,0.338341,0.288341,0.338341,0.338341,0.338341,0.338341,0.318818,0.297222,0.296675,0.288341,0.213341,0.265614,0.188341,0.238341,0.205008,0.238341,0.226762,0.238341,0.238341,0.233038,0.238341,0.121675,0.238341,0.288341,0.213341,0.238341,0.231198,0.238341,0.232138,0.241282,0.288341,0.213341,0.22723,0.238341,0.205008,0.224056,0.188341,0.211201,0.214919,0.200841,0.238341,0.238341,0.238341,0.238341,0.259517,0.274013,0.283348,0.287563,0.288341,0.288341,0.288341,0.278341,0.238341,0.225841,0.221675,0.231198,0.238341,0.238341,0.238341,0.218341,0.224056,0.228341,0.238341,0.230008,0.216119,0.238341,0.238341,0.238341,0.238341,0.238341,0.216119,0.231198,0.213341,0.221675,0.22723,0.221675,0.238341,0.238341,0.238341,0.238341,0.238341,0.238341,0.238341,0.238341,0.238341,0.238341,0.238341,0.238341,0.238341,0.238341,0.238341,0.238341,0.238341,0.238341,0.238341,0.238341,0.238341,0.255008,0.255008,0.238341,0.271675,0.255511,0.288341,0.271675,0.238341,0.238341,0.158341,0.0383412,-0.111659,-0.111659,-0.111659,-0.111659,-0.111659,-0.111659,-0.111659,-0.111659,-0.111659,-0.111659,-0.111659,-0.111659,-0.111659,-0.111659,-0.111659,-0.111659,-0.111659,-0.111659,-0.111659,-0.111659,-0.111659,-0.111659,-0.111659,-0.111659,-0.111659,-0.111659,-0.111659,-0.111659,-0.111659,-0.111659,-0.111659,-0.111659,-0.111659,-0.111659,-0.111659,-0.111659,-0.111659,-0.111659,-0.111659,-0.111659,-0.111659,-0.111659,-0.111659,-0.111659,-0.111659,-0.111659,-0.111659,-0.111659,-0.111659,-0.111659,-0.111659,-0.111659,-0.111659,nan,nan,nan,nan,nan,nan,nan,nan,nan,nan,nan,nan,nan,nan,nan,nan,nan,nan,nan,nan,nan,nan,nan,nan,nan,nan,nan,nan,nan,nan,nan,nan,nan,nan,nan,nan,nan,nan,nan,nan,nan,nan,nan,nan,nan,nan,nan,nan,nan,nan,nan,nan,nan,nan,nan,nan,nan,nan,nan,nan,nan,nan,nan,nan,nan,nan,nan,nan,nan,nan,nan,nan,nan,nan,nan,nan,nan,nan,nan,nan,nan,nan,nan,nan,nan,nan,nan,nan,nan,nan,nan,nan,nan,nan,nan,nan,nan,nan,nan,nan,nan,nan,nan,nan,nan,nan,nan,nan,nan,nan,nan,nan,nan,nan,nan,nan,nan,nan,nan,nan,nan,nan
0.388341,0.39363,0.394627,0.391005,0.384275,0.382793,0.386321,0.386507,0.388341,0.363341,0.366119,0.349452,0.288341,0.388341,0.388341,0.388341,0.278341,0.288341,0.321675,0.338341,0.338341,0.338341,0.338341,0.311648,0.338341,0.266119,0.188341,0.288341,0.250841,0.205008,0.238341,0.188341,0.238341,0.238341,0.234091,0.238341,0.233149,0.238341,0.238341,0.138341,0.288341,0.205008,0.221675,0.196675,0.238341,0.227662,0.235251,0.235618,0.238341,0.238341,0.221675,0.238341,0.213341,0.188341,0.204129,0.238341,0.215237,0.221675,0.238341,0.231787,0.238671,0.248088,0.259628,0.269178,0.263341,0.288341,0.288341,0.288341,0.274056,0.238341,0.238341,0.218341,0.213341,0.213341,0.238341,0.238341,0.216913,0.213341,0.232786,0.213341,0.238341,0.213341,0.230008,0.238341,0.238341,0.238341,0.238341,0.238341,0.22723,0.224056,0.224056,0.218341,0.208341,0.238341,0.238341,0.238341,0.238341,0.238341,0.238341,0.238341,0.238341,0.238341,0.238341,0.238341,0.238341,0.238341,0.238341,0.238341,0.238341,0.238341,0.238341,0.238341,0.238341,0.238341,0.238341,0.238341,0.238341,0.288341,0.238341,0.238341,0.244476,0.250841,0.248341,0.196675,-0.0283254,-0.0257322,-0.111659,-0.111659,-0.111659,-0.111659,-0.111659,-0.111659,-0.111659,-0.111659,-0.111659,-0.111659,-0.111659,-0.111659,-0.111659,-0.111659,-0.111659,-0.111659,-0.111659,-0.111659,-0.111659,-0.111659,-0.111659,-0.111659,-0.111659,-0.111659,-0.111659,-0.111659,-0.111659,-0.111659,-0.111659,-0.111659,-0.111659,-0.111659,-0.111659,-0.111659,-0.111659,-0.111659,-0.111659,-0.111659,-0.111659,-0.111659,-0.111659,-0.111659,-0.111659,-0.111659,-0.111659,-0.111659,-0.111659,-0.111659,-0.111659,-0.111659,-0.111659,-0.111659,nan,nan,nan,nan,nan,nan,nan,nan,nan,nan,nan,nan,nan,nan,nan,nan,nan,nan,nan,nan,nan,nan,nan,nan,nan,nan,nan,nan,nan,nan,nan,nan,nan,nan,nan,nan,nan,nan,nan,nan,nan,nan,nan,nan,nan,nan,nan,nan,nan,nan,nan,nan,nan,nan,nan,nan,nan,nan,nan,nan,nan,nan,nan,nan,nan,nan,nan,nan,nan,nan,nan,nan,nan,nan,nan,nan,nan,nan,nan,nan,nan,nan,nan,nan,nan,nan,nan,nan,nan,nan,nan,nan,nan,nan,nan,nan,nan,nan,nan,nan,nan,nan,nan,nan,nan,nan,nan,nan,nan,nan,nan,nan,nan,nan,nan,nan,nan,nan,nan,nan,nan,nan
0.388341,0.391377,0.387484,0.381398,0.37741,0.378577,0.388341,0.388341,0.388341,0.388341,0.266913,0.398341,0.372957,0.382786,0.32588,0.338341,0.338341,0.338341,0.281198,0.318341,0.305008,0.288341,0.288341,0.301828,0.338341,0.288341,0.288341,0.263341,0.169591,0.202627,0.238341,0.188341,0.188341,0.238341,0.238341,0.238341,0.238341,0.238341,0.238341,0.238341,0.155008,0.138341,0.113341,0.238341,0.221675,0.218171,0.238341,0.238341,0.138341,0.238341,0.238341,0.225841,0.221675,0.188341,0.188341,0.200378,0.206732,0.205008,0.221675,0.224775,0.238341,0.240767,0.248968,0.255008,0.271675,0.26966,0.272797,0.278341,0.27723,0.238341,0.238341,0.238341,0.218341,0.213341,0.221675,0.238341,0.213341,0.219591,0.216913,0.225841,0.205008,0.228341,0.200841,0.228341,0.238341,0.238341,0.238341,0.238341,0.238341,0.238341,0.208341,0.225841,0.216913,0.225841,0.231198,0.238341,0.238341,0.232786,0.238341,0.238341,0.238341,0.238341,0.238341,0.238341,0.238341,0.238341,0.238341,0.238341,0.238341,0.238341,0.238341,0.238341,0.238341,0.238341,0.238341,0.238341,0.238341,0.238341,0.238341,0.238341,0.238341,0.238341,0.238341,0.175008,-0.0116588,-0.0616588,-0.0616588,-0.0616588,-0.103573,-0.10796,-0.110249,-0.110886,-0.11083,-0.110486,-0.110125,-0.110253,-0.110891,-0.111449,-0.111638,-0.111659,-0.111659,-0.111659,-0.111659,-0.111659,-0.111659,-0.111659,-0.111659,-0.111659,-0.111659,-0.111659,-0.111659,-0.111659,-0.111659,-0.111659,-0.111659,-0.111659,-0.111659,-0.111659,-0.111659,-0.111659,-0.111659,-0.111659,-0.111659,-0.111659,-0.111659,-0.111659,-0.111659,-0.111659,-0.111659,-0.111659,-0.111659,-0.111659,-0.111659,-0.111659,-0.111659,-0.111659,-0.111659,-0.111659,nan,nan,nan,nan,nan,nan,nan,nan,nan,nan,nan,nan,nan,nan,nan,nan,nan,nan,nan,nan,nan,nan,nan,nan,nan,nan,nan,nan,nan,nan,nan,nan,nan,nan,nan,nan,nan,nan,nan,nan,nan,nan,nan,nan,nan,nan,nan,nan,nan,nan,nan,nan,nan,nan,nan,nan,nan,nan,nan,nan,nan,nan,nan,nan,nan,nan,nan,nan,nan,nan,nan,nan,nan,nan,nan,nan,nan,nan,nan,nan,nan,nan,nan,nan,nan,nan,nan,nan,nan,nan,nan,nan,nan,nan,nan,nan,nan,nan,nan,nan,nan,nan,nan,nan,nan,nan,nan,nan,nan,nan,nan,nan,nan,nan,nan,nan,nan,nan,nan,nan,nan,nan
0.393341,0.399452,0.394591,0.388341,0.388341,0.338341,0.377208,0.388341,0.388341,0.438341,0.419591,0.463341,0.363341,0.375841,0.225841,0.321675,0.0883413,0.338341,0.313341,0.288341,0.288341,0.288341,0.288341,0.288341,0.274732,0.288341,0.188341,0.200841,0.238341,0.188341,0.208341,0.208007,0.188341,0.223152,0.238341,0.238341,0.238341,0.230336,0.238341,0.113341,0.238341,0.238341,0.238341,0.196675,0.188341,0.208319,0.215922,0.222742,0.238341,0.238341,0.218341,0.238341,0.225841,0.188341,0.188341,0.188341,0.199084,0.20977,0.188341,0.220431,0.238341,0.238341,0.238341,0.238341,0.263341,0.238341,0.275841,0.288341,0.255008,0.238341,0.238341,0.238341,0.238341,0.216913,0.188341,0.228341,0.213341,0.213341,0.213341,0.216913,0.232786,0.205008,0.228341,0.205008,0.213341,0.238341,0.238341,0.238341,0.238341,0.238341,0.238341,0.221675,0.221675,0.230008,0.208341,0.228341,0.216913,0.221675,0.224056,0.238341,0.238341,0.238341,0.238341,0.238341,0.238341,0.238341,0.238341,0.238341,0.238341,0.238341,0.238341,0.238341,0.238341,0.238341,0.238341,0.238341,0.238341,0.238341,0.238341,0.238341,0.238341,0.213142,0.16107,0.0928867,0.0168009,-0.0435655,-0.0812133,-0.111659,-0.111659,-0.111659,-0.110896,-0.111541,-0.111606,-0.111563,-0.111478,-0.111462,-0.111558,-0.111641,-0.111658,-0.111659,-0.111659,-0.111659,-0.111659,-0.111659,-0.111659,-0.111659,-0.111659,-0.111659,-0.111659,-0.111659,-0.111659,-0.111659,-0.111659,-0.111659,-0.111659,-0.111659,-0.111659,-0.111659,-0.111659,-0.111659,-0.111659,-0.111659,-0.111659,-0.111659,-0.111659,-0.111659,-0.111659,-0.111659,-0.111659,-0.111659,-0.111659,-0.111659,-0.111659,-0.111659,-0.111659,-0.111659,-0.111659,-0.111659,-0.111659,nan,nan,nan,nan,nan,nan,nan,nan,nan,nan,nan,nan,nan,nan,nan,nan,nan,nan,nan,nan,nan,nan,nan,nan,nan,nan,nan,nan,nan,nan,nan,nan,nan,nan,nan,nan,nan,nan,nan,nan,nan,nan,nan,nan,nan,nan,nan,nan,nan,nan,nan,nan,nan,nan,nan,nan,nan,nan,nan,nan,nan,nan,nan,nan,nan,nan,nan,nan,nan,nan,nan,nan,nan,nan,nan,nan,nan,nan,nan,nan,nan,nan,nan,nan,nan,nan,nan,nan,nan,nan,nan,nan,nan,nan,nan,nan,nan,nan,nan,nan,nan,nan,nan,nan,nan,nan,nan,nan,nan,nan,nan,nan,nan,nan,nan,nan,nan,nan,nan,nan,nan
0.388097,0.378063,0.406523,0.388341,0.388341,0.371675,0.388341,0.413341,0.320234,0.0383412,-0.0116588,0.138341,0.171675,0.0633413,0.305008,0.288341,0.27862,0.282904,0.288341,0.288341,0.288341,0.288341,0.288341,0.275451,0.258346,0.288341,0.208341,0.238341,0.178341,0.208341,0.213341,0.204005,0.209678,0.216978,0.238341,0.238341,0.238341,0.238341,0.238341,0.238341,0.238341,0.221675,0.208341,0.188341,0.188341,0.213341,0.207471,0.21942,0.226479,0.238341,0.238341,0.238341,0.216119,0.171675,0.188341,0.188341,0.188341,0.198341,0.188341,0.220425,0.238341,0.236383,0.238341,0.258341,0.263341,0.238341,0.255727,0.274056,0.238341,0.238341,0.238341,0.238341,0.238341,0.238341,0.224056,0.205008,0.231198,0.213341,0.231198,0.198341,0.219591,0.238341,0.213341,0.238341,0.195484,0.213341,0.238341,0.238341,0.238341,0.238341,0.238341,0.238341,0.238341,0.224056,0.220159,0.213341,0.221675,0.225841,0.200841,0.22723,0.213341,0.230008,0.238341,0.238341,0.238341,0.238341,0.238341,0.238341,0.238341,0.238341,0.238341,0.238341,0.238341,0.238341,0.238341,0.238341,0.238341,0.238851,0.238341,0.238341,0.238341,0.206542,0.145985,0.065614,-0.0616588,-0.0949921,-0.111659,-0.103577,-0.108246,-0.110482,-0.111659,-0.111659,-0.111659,-0.111659,-0.111658,-0.111658,-0.111659,-0.111659,-0.111659,-0.111659,-0.111659,-0.111659,-0.111659,-0.111659,-0.111659,-0.111659,-0.111659,-0.111659,-0.111659,-0.111659,-0.111659,-0.111659,-0.111659,-0.111659,-0.111659,-0.111659,-0.111659,-0.111659,-0.111659,-0.111659,-0.111659,-0.111659,-0.111659,-0.111659,-0.111659,-0.111659,-0.111659,-0.111659,-0.111659,-0.111659,-0.111659,-0.111659,-0.111659,-0.111659,-0.111659,-0.111659,-0.111659,-0.111659,nan,nan,nan,nan,nan,nan,nan,nan,nan,nan,nan,nan,nan,nan,nan,nan,nan,nan,nan,nan,nan,nan,nan,nan,nan,nan,nan,nan,nan,nan,nan,nan,nan,nan,nan,nan,nan,nan,nan,nan,nan,nan,nan,nan,nan,nan,nan,nan,nan,nan,nan,nan,nan,nan,nan,nan,nan,nan,nan,nan,nan,nan,nan,nan,nan,nan,nan,nan,nan,nan,nan,nan,nan,nan,nan,nan,nan,nan,nan,nan,nan,nan,nan,nan,nan,nan,nan,nan,nan,nan,nan,nan,nan,nan,nan,nan,nan,nan,nan,nan,nan,nan,nan,nan,nan,nan,nan,nan,nan,nan,nan,nan,nan,nan,nan,nan,nan,nan,nan,nan,nan,nan
0.381295,0.366035,0.351755,0.138341,0.388341,0.355545,0.349853,0.327335,0.296897,0.272863,0.338341,0.321675,0.325841,0.288341,0.288341,0.26904,0.270815,0.288341,0.288341,0.288341,0.288341,0.288341,0.288341,0.288341,0.238341,0.175841,0.138341,0.238341,0.218341,0.138341,0.188341,0.213341,0.238341,0.205791,0.211842,0.238341,0.238341,0.238341,0.238341,0.200841,0.238341,0.231198,0.200841,0.188341,0.188341,0.188341,0.199991,0.214132,0.238341,0.226355,0.200841,0.246675,0.213341,0.188341,0.188341,0.188341,0.191561,0.202754,0.221675,0.213341,0.213341,0.238341,0.238341,0.238341,0.252627,0.248341,0.249815,0.238341,0.238341,0.238341,0.238341,0.238341,0.224056,0.238341,0.238341,0.219591,0.213341,0.218341,0.205008,0.228341,0.196675,0.207091,0.218341,0.188341,0.218341,0.195484,0.207091,0.225841,0.213341,0.238341,0.238341,0.238341,0.238341,0.238341,0.238341,0.213341,0.221675,0.216913,0.225841,0.218341,0.216913,0.213341,0.225841,0.238341,0.238341,0.238341,0.238341,0.238341,0.238341,0.238341,0.238341,0.238341,0.238341,0.238341,0.238341,0.238341,0.238341,0.238341,0.238341,0.238341,0.238341,0.238341,0.238341,0.0837958,-0.0866588,-0.0949921,-0.111659,-0.111659,-0.111659,-0.111659,-0.111659,-0.111659,-0.111659,-0.111659,-0.111659,-0.111659,-0.111659,-0.111659,-0.111659,-0.111659,-0.111659,-0.111659,-0.111659,-0.111659,-0.111659,-0.111659,-0.111659,-0.111659,-0.111659,-0.111659,-0.111659,-0.111659,-0.111659,-0.111659,-0.111659,-0.111659,-0.111659,-0.111659,-0.111659,-0.111659,-0.111659,-0.111659,-0.111659,-0.111659,-0.111659,-0.111659,-0.111659,-0.111659,-0.111659,-0.111659,-0.111659,-0.111659,-0.111659,-0.111659,-0.111659,-0.111659,-0.111659,-0.111659,nan,nan,nan,nan,nan,nan,nan,nan,nan,nan,nan,nan,nan,nan,nan,nan,nan,nan,nan,nan,nan,nan,nan,nan,nan,nan,nan,nan,nan,nan,nan,nan,nan,nan,nan,nan,nan,nan,nan,nan,nan,nan,nan,nan,nan,nan,nan,nan,nan,nan,nan,nan,nan,nan,nan,nan,nan,nan,nan,nan,nan,nan,nan,nan,nan,nan,nan,nan,nan,nan,nan,nan,nan,nan,nan,nan,nan,nan,nan,nan,nan,nan,nan,nan,nan,nan,nan,nan,nan,nan,nan,nan,nan,nan,nan,nan,nan,nan,nan,nan,nan,nan,nan,nan,nan,nan,nan,nan,nan,nan,nan,nan,nan,nan,nan,nan,nan,nan,nan,nan,nan,nan
0.379339,0.363776,0.345274,0.334218,0.335471,0.337906,0.327329,0.288341,0.288341,0.288341,0.266802,0.288341,0.288341,0.288341,0.264595,0.265076,0.263527,0.255008,0.263341,0.238341,0.238341,0.271675,0.255458,0.238341,0.232466,0.238341,0.238341,0.238341,0.231198,0.188341,0.188341,0.188341,0.221675,0.195891,0.0383412,0.212707,0.238341,0.200841,0.238341,0.238341,0.163341,0.219591,0.238341,0.202627,0.188341,0.190701,0.188341,0.206507,0.221137,0.221765,0.238341,0.163341,0.206198,0.175841,0.188341,0.171675,0.187935,0.202287,0.238341,0.238341,0.238341,0.238341,0.238341,0.238341,0.250841,0.243494,0.238341,0.238341,0.238341,0.238341,0.238341,0.238341,0.238341,0.208341,0.238341,0.238341,0.221675,0.221675,0.224056,0.221675,0.221675,0.188341,0.205008,0.228341,0.188341,0.218341,0.194591,0.205008,0.200841,0.213341,0.238341,0.238341,0.238341,0.238341,0.238341,0.224056,0.221675,0.221675,0.213341,0.22723,0.224056,0.213341,0.216119,0.188341,0.238341,0.232091,0.238341,0.238341,0.238341,0.238341,0.238341,0.238341,0.238341,0.238341,0.238341,0.238341,0.238341,0.238341,0.238341,0.238341,0.238341,0.238341,0.213341,0.0550079,-0.103325,-0.105409,-0.111659,-0.111659,-0.111659,-0.111659,-0.111659,-0.111659,-0.111659,-0.111659,-0.111659,-0.111659,-0.111659,-0.111659,-0.111659,-0.111659,-0.111659,-0.111659,-0.111659,-0.111659,-0.111659,-0.111659,-0.111659,-0.111659,-0.111659,-0.111659,-0.111659,-0.111659,-0.111659,-0.111659,-0.111659,-0.111659,-0.111659,-0.111659,-0.111659,-0.111659,-0.111659,-0.111659,-0.111659,-0.111659,-0.111659,-0.111659,-0.111659,-0.111659,-0.111665,-0.111665,-0.111691,-0.111724,-0.11172,-0.111682,-0.111659,-0.111659,-0.111659,-0.111659,-0.111659,nan,nan,nan,nan,nan,nan,nan,nan,nan,nan,nan,nan,nan,nan,nan,nan,nan,nan,nan,nan,nan,nan,nan,nan,nan,nan,nan,nan,nan,nan,nan,nan,nan,nan,nan,nan,nan,nan,nan,nan,nan,nan,nan,nan,nan,nan,nan,nan,nan,nan,nan,nan,nan,nan,nan,nan,nan,nan,nan,nan,nan,nan,nan,nan,nan,nan,nan,nan,nan,nan,nan,nan,nan,nan,nan,nan,nan,nan,nan,nan,nan,nan,nan,nan,nan,nan,nan,nan,nan,nan,nan,nan,nan,nan,nan,nan,nan,nan,nan,nan,nan,nan,nan,nan,nan,nan,nan,nan,nan,nan,nan,nan,nan,nan,nan,nan,nan,nan,nan,nan,nan
0.388341,0.388341,0.353837,0.337957,0.32991,0.324279,0.338341,0.313341,0.288341,0.288341,0.288341,0.288341,0.198341,0.255008,0.254878,0.254994,0.253708,0.238341,0.238341,0.254125,0.263341,0.238341,0.238341,0.230091,0.221881,0.171675,0.238341,0.238341,0.188341,0.163341,0.188341,0.191195,0.188341,0.238341,0.192854,0.207789,0.238341,0.238341,0.238341,0.238341,0.238341,0.228341,0.188341,0.168341,0.188341,0.188341,0.187899,0.197111,0.213088,0.213844,0.208376,0.238341,0.216913,0.173341,0.163341,0.158341,0.188341,0.188341,0.213503,0.238341,0.221675,0.238341,0.238341,0.238341,0.238341,0.238341,0.243064,0.268341,0.311418,0.238341,0.238341,0.238341,0.238341,0.20977,0.221675,0.238341,0.238341,0.224056,0.225841,0.219591,0.213341,0.221675,0.198341,0.216119,0.20977,0.188341,0.238341,0.188341,0.188341,0.205008,0.221675,0.205008,0.238341,0.238341,0.238341,0.228341,0.225841,0.238341,0.230008,0.213341,0.213341,0.228341,0.216913,0.224056,0.213341,0.188341,0.213341,0.225841,0.238341,0.238341,0.238341,0.238341,0.238341,0.238341,0.238341,0.238341,0.238341,0.238341,0.238341,0.238341,0.238341,0.238341,0.224056,0.108929,-0.111659,-0.111659,-0.111659,-0.111659,-0.111659,-0.111659,-0.111659,-0.111659,-0.111659,-0.111659,-0.111659,-0.111659,-0.111659,-0.111659,-0.111659,-0.111659,-0.111659,-0.111659,-0.111659,-0.111659,-0.111659,-0.111659,-0.111659,-0.111659,-0.111659,-0.111659,-0.111659,-0.111659,-0.111659,-0.111659,-0.111659,-0.111659,-0.111659,-0.111659,-0.111659,-0.111659,-0.111659,-0.111659,-0.111659,-0.111659,-0.111659,-0.11209,-0.112145,-0.112039,-0.111937,-0.112151,-0.112844,-0.113349,-0.112891,-0.112108,-0.111729,-0.11166,-0.111659,-0.111659,nan,nan,nan,nan,nan,nan,nan,nan,nan,nan,nan,nan,nan,nan,nan,nan,nan,nan,nan,nan,nan,nan,nan,nan,nan,nan,nan,nan,nan,nan,nan,nan,nan,nan,nan,nan,nan,nan,nan,nan,nan,nan,nan,nan,nan,nan,nan,nan,nan,nan,nan,nan,nan,nan,nan,nan,nan,nan,nan,nan,nan,nan,nan,nan,nan,nan,nan,nan,nan,nan,nan,nan,nan,nan,nan,nan,nan,nan,nan,nan,nan,nan,nan,nan,nan,nan,nan,nan,nan,nan,nan,nan,nan,nan,nan,nan,nan,nan,nan,nan,nan,nan,nan,nan,nan,nan,nan,nan,nan,nan,nan,nan,nan,nan,nan,nan,nan,nan,nan,nan,nan,nan
0.388341,0.388341,0.338341,0.338341,0.334979,0.319536,0.302901,0.313341,0.288341,0.268341,0.263341,0.238341,0.238341,0.23464,0.23287,0.236982,0.238341,0.246501,0.247076,0.241964,0.232812,0.238341,0.138341,0.238341,0.209743,0.203431,0.228341,0.188341,0.0883413,0.188341,0.188341,0.185816,0.190735,0.188341,0.192676,0.206268,0.222082,0.238341,0.238341,0.205008,0.188341,0.198079,0.168341,0.188341,0.180008,0.178891,0.178509,0.182697,0.198672,0.202828,0.199587,0.188341,0.188341,0.17925,0.155008,0.188341,0.177963,0.188341,0.206245,0.238341,0.213341,0.238341,0.227241,0.238341,0.238341,0.216913,0.221675,0.266913,0.274056,0.207091,0.221675,0.221675,0.238341,0.238341,0.213341,0.213341,0.238341,0.238341,0.225841,0.213341,0.22723,0.221675,0.228341,0.188341,0.216913,0.213341,0.188341,0.221675,0.198341,0.188341,0.195484,0.188341,0.200841,0.230008,0.238341,0.238341,0.238341,0.238341,0.238341,0.238341,0.231198,0.218341,0.221675,0.221675,0.221675,0.221675,0.205008,0.188341,0.205008,0.230008,0.238341,0.238341,0.238341,0.238341,0.238341,0.238341,0.238341,0.238341,0.238341,0.237555,0.238341,0.238341,0.230008,0.0971648,-0.00406383,-0.071314,-0.111659,-0.111659,-0.111659,-0.111656,-0.111659,-0.111659,-0.111659,-0.111659,-0.111659,-0.111659,-0.111659,-0.111659,-0.111659,-0.111659,-0.111659,-0.111659,-0.111659,-0.111659,-0.111659,-0.111659,-0.111659,-0.111659,-0.111659,-0.111659,-0.111659,-0.111659,-0.113625,-0.113546,-0.111659,-0.111659,-0.111659,-0.111659,-0.111659,-0.111659,-0.111659,-0.114653,-0.115182,-0.115771,-0.116504,-0.116817,-0.115898,-0.114556,-0.114279,-0.115917,-0.118586,-0.118571,-0.115706,-0.113194,-0.111998,-0.111681,-0.111659,-0.111659,nan,nan,nan,nan,nan,nan,nan,nan,nan,nan,nan,nan,nan,nan,nan,nan,nan,nan,nan,nan,nan,nan,nan,nan,nan,nan,nan,nan,nan,nan,nan,nan,nan,nan,nan,nan,nan,nan,nan,nan,nan,nan,nan,nan,nan,nan,nan,nan,nan,nan,nan,nan,nan,nan,nan,nan,nan,nan,nan,nan,nan,nan,nan,nan,nan,nan,nan,nan,nan,nan,nan,nan,nan,nan,nan,nan,nan,nan,nan,nan,nan,nan,nan,nan,nan,nan,nan,nan,nan,nan,nan,nan,nan,nan,nan,nan,nan,nan,nan,nan,nan,nan,nan,nan,nan,nan,nan,nan,nan,nan,nan,nan,nan,nan,nan,nan,nan,nan,nan,nan,nan,nan
0.368337,0.36255,0.355287,0.346738,0.336159,0.315744,0.293674,0.276573,0.238341,0.238341,0.238341,0.238341,0.216045,0.188341,0.20797,0.215714,0.232803,0.24077,0.238946,0.228708,0.219687,0.194591,0.205008,0.207916,0.198382,0.238341,0.238341,0.188341,0.188341,0.113341,0.188341,0.188341,0.185882,0.188928,0.192165,0.188341,0.217948,0.220647,0.213729,0.196675,0.188341,0.188341,0.188341,0.188341,0.171675,0.188341,0.165382,0.164229,0.179018,0.192478,0.188341,0.188791,0.188341,0.171675,0.138341,0.138341,0.173594,0.188341,0.188341,0.213341,0.200841,0.213341,0.238341,0.213341,0.225841,0.221675,0.238341,0.250841,0.230008,0.188341,0.205008,0.213341,0.213341,0.238341,0.238341,0.207091,0.205008,0.221675,0.230008,0.207091,0.218341,0.210563,0.218341,0.218341,0.188341,0.213341,0.207091,0.198341,0.196675,0.208341,0.188341,0.188341,0.196675,0.218341,0.224056,0.231198,0.238341,0.238341,0.231198,0.232786,0.238341,0.238341,0.238341,0.221675,0.223341,0.225841,0.219591,0.213341,0.202627,0.200841,0.213341,0.224056,0.228341,0.238341,0.238341,0.238341,0.238341,0.238341,0.238341,0.238341,0.238341,0.238341,0.238341,0.0508412,-0.111659,-0.111659,-0.10224,-0.110357,-0.111659,-0.111659,-0.111659,-0.111659,-0.111713,-0.111759,-0.111798,-0.111833,-0.111876,-0.111917,-0.11194,-0.111933,-0.111941,-0.111659,-0.111659,-0.111659,-0.111659,-0.111659,-0.111659,-0.111659,-0.111659,-0.111659,-0.111659,-0.111659,-0.111659,-0.111659,-0.111659,-0.121379,-0.12194,-0.122488,-0.123017,-0.124456,-0.127214,-0.130782,-0.134258,-0.136784,-0.137091,-0.132852,-0.125561,-0.120371,-0.111659,-0.121061,-0.123696,-0.122917,-0.11889,-0.111659,-0.111659,-0.111774,-0.111659,-0.111659,-0.111659,nan,nan,nan,nan,nan,nan,nan,nan,nan,nan,nan,nan,nan,nan,nan,nan,nan,nan,nan,nan,nan,nan,nan,nan,nan,nan,nan,nan,nan,nan,nan,nan,nan,nan,nan,nan,nan,nan,nan,nan,nan,nan,nan,nan,nan,nan,nan,nan,nan,nan,nan,nan,nan,nan,nan,nan,nan,nan,nan,nan,nan,nan,nan,nan,nan,nan,nan,nan,nan,nan,nan,nan,nan,nan,nan,nan,nan,nan,nan,nan,nan,nan,nan,nan,nan,nan,nan,nan,nan,nan,nan,nan,nan,nan,nan,nan,nan,nan,nan,nan,nan,nan,nan,nan,nan,nan,nan,nan,nan,nan,nan,nan,nan,nan,nan,nan,nan,nan,nan,nan,nan
0.303836,0.302362,0.300546,0.29613,0.289023,0.283516,0.271923,0.255603,0.239544,0.238341,0.171675,0.200841,0.188341,0.188341,0.188874,0.193711,0.214369,0.234729,0.229284,0.217149,0.212807,0.213341,0.213341,0.238341,0.238341,0.0383412,0.0758412,0.188341,0.188341,0.173738,0.188341,0.188341,0.188341,0.188341,0.188609,0.196515,0.208613,0.207875,0.200227,0.213341,0.188341,0.188341,0.188341,0.155008,0.15977,0.138341,0.153508,0.150874,0.163719,0.186034,0.188558,0.188341,0.188341,0.188341,0.138341,0.163159,0.170735,0.183001,0.188341,0.188341,0.188341,0.188341,0.188341,0.210711,0.218341,0.188341,0.213341,0.238341,0.216913,0.188341,0.188341,0.20977,0.213341,0.200841,0.238341,0.238341,0.218341,0.196675,0.200841,0.238341,0.205008,0.213341,0.194591,0.218341,0.221675,0.205008,0.213341,0.216913,0.198341,0.196675,0.200841,0.188341,0.188341,0.213341,0.218341,0.219591,0.238341,0.238341,0.238341,0.238341,0.238341,0.238341,0.238341,0.238341,0.238341,0.225841,0.225841,0.216119,0.213341,0.213341,0.208341,0.205008,0.210563,0.200841,0.200841,0.219889,0.225589,0.238341,0.238341,0.238341,0.238341,0.238341,0.202627,-0.00396645,-0.0949921,-0.105409,-0.111659,-0.111659,-0.111659,-0.111647,-0.11172,-0.111659,-0.111659,-0.111659,-0.1133,-0.113908,-0.114671,-0.115561,-0.116275,-0.116408,-0.116288,-0.117017,-0.119062,-0.121678,-0.123699,-0.125023,-0.126833,-0.12978,-0.132928,-0.135247,-0.136739,-0.137899,-0.138801,-0.139222,-0.139662,-0.141083,-0.143269,-0.144855,-0.14577,-0.147401,-0.150254,-0.153575,-0.156189,-0.156893,-0.15394,-0.145557,-0.128325,-0.111659,-0.111659,-0.126004,-0.111659,-0.124159,-0.111659,-0.111659,-0.114059,-0.112317,-0.111839,-0.111684,-0.111659,nan,nan,nan,nan,nan,nan,nan,nan,nan,nan,nan,nan,nan,nan,nan,nan,nan,nan,nan,nan,nan,nan,nan,nan,nan,nan,nan,nan,nan,nan,nan,nan,nan,nan,nan,nan,nan,nan,nan,nan,nan,nan,nan,nan,nan,nan,nan,nan,nan,nan,nan,nan,nan,nan,nan,nan,nan,nan,nan,nan,nan,nan,nan,nan,nan,nan,nan,nan,nan,nan,nan,nan,nan,nan,nan,nan,nan,nan,nan,nan,nan,nan,nan,nan,nan,nan,nan,nan,nan,nan,nan,nan,nan,nan,nan,nan,nan,nan,nan,nan,nan,nan,nan,nan,nan,nan,nan,nan,nan,nan,nan,nan,nan,nan,nan,nan,nan,nan,nan,nan,nan
0.211549,0.210232,0.210091,0.2081,0.201198,0.194236,0.201716,0.208813,0.204164,0.194313,0.188341,0.188341,0.188341,0.171675,0.174653,0.173703,0.177784,0.202712,0.216393,0.210552,0.208101,0.205542,0.238341,0.205008,0.182178,0.188341,0.188341,0.188341,0.188341,0.188341,0.163341,0.138341,0.188341,0.177732,0.183815,0.189719,0.191204,0.184078,0.180966,0.188341,0.188341,0.188341,0.188341,0.188341,0.138341,0.150841,0.138341,0.143687,0.153475,0.181935,0.187391,0.188341,0.188341,0.178341,0.148341,0.163341,0.163341,0.188341,0.188341,0.188341,0.188341,0.19293,0.188341,0.201018,0.206802,0.213341,0.238341,0.208341,0.216913,0.200841,0.188341,0.188341,0.208341,0.205008,0.200841,0.228341,0.238341,0.196675,0.213341,0.205008,0.225841,0.202627,0.205008,0.195484,0.213341,0.205008,0.208341,0.205008,0.208341,0.20977,0.196675,0.200841,0.188341,0.202627,0.213341,0.225841,0.221675,0.225841,0.238341,0.238341,0.238341,0.238341,0.223341,0.238341,0.238341,0.225841,0.225841,0.238341,0.224056,0.21911,0.216913,0.20977,0.208341,0.198341,0.188341,0.188341,0.238341,0.238341,0.229309,0.238341,0.238341,0.238341,0.163341,0.0359603,-0.0509445,-0.102568,-0.111659,-0.111659,-0.111659,-0.111659,-0.111659,-0.111659,-0.113601,-0.115143,-0.111659,-0.111659,-0.111659,-0.124332,-0.126577,-0.127882,-0.128799,-0.131108,-0.135603,-0.140481,-0.143543,-0.144835,-0.145832,-0.147443,-0.161659,-0.161659,-0.161659,-0.161659,-0.161659,-0.161659,-0.161659,-0.156376,-0.161659,-0.161659,-0.159063,-0.161659,-0.161659,-0.161659,-0.161659,-0.161659,-0.161659,-0.161659,-0.142379,-0.111659,-0.111659,-0.141659,-0.144992,-0.161659,-0.129097,-0.124307,-0.120426,-0.118394,-0.117804,-0.116833,-0.11305,nan,nan,nan,nan,nan,nan,nan,nan,nan,nan,nan,nan,nan,nan,nan,nan,nan,nan,nan,nan,nan,nan,nan,nan,nan,nan,nan,nan,nan,nan,nan,nan,nan,nan,nan,nan,nan,nan,nan,nan,nan,nan,nan,nan,nan,nan,nan,nan,nan,nan,nan,nan,nan,nan,nan,nan,nan,nan,nan,nan,nan,nan,nan,nan,nan,nan,nan,nan,nan,nan,nan,nan,nan,nan,nan,nan,nan,nan,nan,nan,nan,nan,nan,nan,nan,nan,nan,nan,nan,nan,nan,nan,nan,nan,nan,nan,nan,nan,nan,nan,nan,nan,nan,nan,nan,nan,nan,nan,nan,nan,nan,nan,nan,nan,nan,nan,nan,nan,nan,nan,nan
0.238341,0.205008,0.173657,0.180936,0.181961,0.174318,0.162019,0.157631,0.160729,0.161684,0.161196,0.0133412,0.181198,0.188341,0.162254,0.157037,0.149858,0.144469,0.179024,0.199663,0.195321,0.190778,0.188341,0.188341,0.188341,0.188341,0.138341,0.121675,0.164526,0.188341,0.163341,0.163341,0.160116,0.16504,0.174052,0.181529,0.156043,0.151755,0.158005,0.188341,0.188341,0.188341,0.125841,0.163341,0.138341,0.138341,0.138341,0.140282,0.146742,0.177914,0.186896,0.188341,0.188341,0.188341,0.148341,0.138341,0.188341,0.177904,0.188341,0.188341,0.188341,0.188341,0.188341,0.188341,0.199922,0.205008,0.20977,0.238341,0.205008,0.188341,0.188341,0.195006,0.198341,0.205008,0.213341,0.188341,0.188341,0.200841,0.188341,0.188341,0.200841,0.188341,0.213341,0.20977,0.199452,0.207091,0.188341,0.221675,0.198341,0.208341,0.208341,0.196675,0.210563,0.188341,0.188341,0.188341,0.205008,0.221675,0.238341,0.238341,0.238341,0.218341,0.228341,0.224056,0.225841,0.200841,0.221675,0.213341,0.216913,0.238341,0.238341,0.221675,0.20977,0.205008,0.202627,0.188341,0.188341,0.205008,0.238341,0.238341,0.238341,0.238341,0.221675,0.0716746,-0.0616588,-0.0866588,-0.111659,-0.111659,-0.111659,-0.111659,-0.111659,-0.111659,-0.111659,-0.111659,-0.111659,-0.126291,-0.111659,-0.111659,-0.111659,-0.111659,-0.111659,-0.111659,-0.147662,-0.161659,-0.161659,-0.161659,-0.161659,-0.161659,-0.161659,-0.161659,-0.161659,-0.161659,-0.161659,-0.161659,-0.161659,-0.161659,-0.161659,-0.161659,-0.161659,-0.161659,-0.161659,-0.161659,-0.161659,-0.161659,-0.161659,-0.161659,-0.151659,-0.161659,-0.161659,-0.139673,-0.141182,-0.142216,-0.141931,-0.141202,-0.141282,-0.143168,-0.147339,-0.15359,-0.160267,nan,nan,nan,nan,nan,nan,nan,nan,nan,nan,nan,nan,nan,nan,nan,nan,nan,nan,nan,nan,nan,nan,nan,nan,nan,nan,nan,nan,nan,nan,nan,nan,nan,nan,nan,nan,nan,nan,nan,nan,nan,nan,nan,nan,nan,nan,nan,nan,nan,nan,nan,nan,nan,nan,nan,nan,nan,nan,nan,nan,nan,nan,nan,nan,nan,nan,nan,nan,nan,nan,nan,nan,nan,nan,nan,nan,nan,nan,nan,nan,nan,nan,nan,nan,nan,nan,nan,nan,nan,nan,nan,nan,nan,nan,nan,nan,nan,nan,nan,nan,nan,nan,nan,nan,nan,nan,nan,nan,nan,nan,nan,nan,nan,nan,nan,nan,nan,nan,nan,nan,nan
0.250841,0.221675,0.207091,0.188341,0.188341,0.166625,0.154931,0.144972,0.138341,0.143966,0.148162,0.188341,0.171675,0.150841,0.138341,0.142311,0.136788,0.135205,0.141115,0.167636,0.168745,0.16656,0.188341,0.138341,0.138341,0.156222,0.138341,0.150785,0.14887,0.145765,0.138341,0.138341,0.138907,0.139974,0.144205,0.145319,0.106474,0.121303,0.136433,-0.0116588,0.175841,0.188341,0.138341,0.138341,0.138341,0.138341,0.138341,0.13851,0.142063,0.172468,0.186033,0.183051,0.188341,0.174056,0.150841,0.138341,0.188341,0.174811,0.179676,0.163341,0.188341,0.182517,0.185993,0.188341,0.188341,0.188341,0.188341,0.205008,0.219591,0.188341,0.188341,0.188341,0.188341,0.188341,0.188341,0.188341,0.188341,0.188341,0.188341,0.188341,0.188341,0.188341,0.188341,0.188341,0.188341,0.188341,0.188341,0.188341,0.188341,0.188341,0.188341,0.188341,0.205008,0.205008,0.196675,0.188341,0.188341,0.188341,0.205008,0.200841,0.218341,0.20977,0.208341,0.218341,0.207091,0.213341,0.230008,0.225841,0.221675,0.207091,0.213341,0.208341,0.205008,0.225841,0.238341,0.213341,0.188341,0.188341,0.196675,0.218341,0.238341,0.221675,0.192887,0.120484,-0.111659,-0.111659,-0.0996555,-0.109954,-0.111659,-0.111659,-0.111659,-0.111659,-0.125295,-0.132492,-0.14023,-0.143477,-0.154516,-0.161659,-0.161659,-0.161659,-0.161659,-0.161659,-0.152568,-0.150548,-0.147373,-0.147373,-0.149159,-0.141659,-0.144992,-0.151659,-0.161659,-0.161659,-0.161659,-0.161659,-0.161659,-0.161659,-0.161659,-0.161659,-0.161659,-0.161659,-0.161659,-0.161659,-0.161659,-0.161659,-0.161659,-0.161659,-0.155832,-0.152508,-0.150869,-0.151383,-0.153299,-0.155279,-0.156589,-0.157448,-0.158337,-0.159547,-0.160844,-0.161602,nan,nan,nan,nan,nan,nan,nan,nan,nan,nan,nan,nan,nan,nan,nan,nan,nan,nan,nan,nan,nan,nan,nan,nan,nan,nan,nan,nan,nan,nan,nan,nan,nan,nan,nan,nan,nan,nan,nan,nan,nan,nan,nan,nan,nan,nan,nan,nan,nan,nan,nan,nan,nan,nan,nan,nan,nan,nan,nan,nan,nan,nan,nan,nan,nan,nan,nan,nan,nan,nan,nan,nan,nan,nan,nan,nan,nan,nan,nan,nan,nan,nan,nan,nan,nan,nan,nan,nan,nan,nan,nan,nan,nan,nan,nan,nan,nan,nan,nan,nan,nan,nan,nan,nan,nan,nan,nan,nan,nan,nan,nan,nan,nan,nan,nan,nan,nan,nan,nan,nan,nan,nan
-0.161659,-0.211659,0.211069,0.175841,0.175841,0.188341,0.138341,0.140157,0.138341,0.138341,0.138341,0.138341,0.188341,0.155008,0.138341,0.128006,0.125665,0.126289,0.125242,0.128396,0.136067,0.139308,0.138341,0.138341,0.138341,0.144187,0.140416,0.131477,0.125419,0.122958,0.138341,0.113341,0.116052,0.112957,0.108452,0.0953328,0.0686966,0.0983987,0.121024,0.136892,0.15977,0.138341,0.148645,0.138341,0.138341,0.138341,0.138341,0.135842,0.136285,0.161284,0.184141,0.180633,0.188341,0.173341,0.138341,0.157251,0.188341,0.166615,0.171013,0.188341,0.138341,0.188341,0.18094,0.186847,0.1921,0.19794,0.188341,0.238341,0.205008,0.188341,0.188341,0.188341,0.188341,0.188341,0.188341,0.188341,0.188341,0.188341,0.188341,0.188341,0.188341,0.188341,0.188341,0.188341,0.188341,0.188341,0.188341,0.188341,0.188341,0.188341,0.188341,0.188341,0.200841,0.213341,0.225841,0.205008,0.188341,0.188341,0.188341,0.188341,0.188341,0.221675,0.208341,0.198341,0.213341,0.205008,0.213341,0.205008,0.213341,0.221675,0.225841,0.213341,0.208341,0.188341,0.188341,0.219591,0.205008,0.188341,0.217454,0.238341,0.238341,0.238341,0.188341,0.0850079,-0.111659,-0.111659,-0.111659,-0.111659,-0.115497,-0.116567,-0.116745,-0.111659,-0.111659,-0.111659,-0.136422,-0.143335,-0.141659,-0.144992,-0.147373,-0.155409,-0.161659,-0.161659,-0.161659,-0.161659,-0.161659,-0.161659,-0.161659,-0.161659,-0.161659,-0.161659,-0.161659,-0.161659,-0.161659,-0.161659,-0.161659,-0.161659,-0.161659,-0.168347,-0.167442,-0.161659,-0.161659,-0.161659,-0.161659,-0.161638,-0.161423,-0.160917,-0.160114,-0.159401,-0.161659,-0.159711,-0.160405,-0.160947,-0.161659,-0.161659,-0.161659,-0.161592,-0.161654,-0.161659,-0.161659,nan,nan,nan,nan,nan,nan,nan,nan,nan,nan,nan,nan,nan,nan,nan,nan,nan,nan,nan,nan,nan,nan,nan,nan,nan,nan,nan,nan,nan,nan,nan,nan,nan,nan,nan,nan,nan,nan,nan,nan,nan,nan,nan,nan,nan,nan,nan,nan,nan,nan,nan,nan,nan,nan,nan,nan,nan,nan,nan,nan,nan,nan,nan,nan,nan,nan,nan,nan,nan,nan,nan,nan,nan,nan,nan,nan,nan,nan,nan,nan,nan,nan,nan,nan,nan,nan,nan,nan,nan,nan,nan,nan,nan,nan,nan,nan,nan,nan,nan,nan,nan,nan,nan,nan,nan,nan,nan,nan,nan,nan,nan,nan,nan,nan,nan,nan,nan,nan,nan,nan,nan
0.0358083,0.0692805,0.238341,0.188341,0.171675,0.138341,0.138341,0.138341,0.138341,0.129123,0.138341,0.139696,0.135611,0.138341,0.0983412,0.138341,0.138341,0.114899,0.110442,0.104111,0.110012,0.11554,0.138341,0.113341,0.138341,0.129243,0.124131,0.114089,0.0883413,0.113341,0.0883413,0.0883413,0.0883413,0.0967315,0.0926172,0.0875425,0.0519024,0.0862467,0.114812,0.132617,0.142625,0.138341,0.144283,0.163341,0.138341,0.138341,0.138341,0.129628,0.126395,0.138065,0.178469,0.177211,0.170131,0.183796,0.138341,0.138341,0.14822,0.149125,0.15248,0.155016,0.156862,0.160165,0.167439,0.178216,0.188341,0.195186,0.199952,0.199729,0.196675,0.188341,0.188341,0.188341,0.188341,0.188341,0.188341,0.188341,0.188341,0.188341,0.188341,0.188341,0.188341,0.188341,0.188341,0.188341,0.188341,0.188341,0.188341,0.188341,0.188341,0.188341,0.188341,0.188341,0.188341,0.195484,0.208341,0.228341,0.208341,0.188341,0.188341,0.188341,0.188341,0.188341,0.218341,0.213341,0.205008,0.213341,0.213341,0.202627,0.202627,0.205008,0.196675,0.188341,0.200841,0.196947,0.188341,0.188341,0.196675,0.205008,0.218341,0.238341,0.238341,0.238341,0.238341,0.133341,-0.111659,-0.111659,-0.111659,-0.111659,-0.111659,-0.111659,-0.111659,-0.111659,-0.128202,-0.136073,-0.136659,-0.161659,-0.161659,-0.161659,-0.156219,-0.15749,-0.158687,-0.159517,-0.159918,-0.161659,-0.161659,-0.161659,-0.161659,-0.161659,-0.161659,-0.161659,-0.161659,-0.161659,-0.161659,-0.161659,-0.161659,-0.161659,-0.161659,-0.161659,-0.161659,-0.17341,-0.168654,-0.164869,-0.162678,-0.161833,-0.161632,-0.161659,-0.161659,-0.161659,-0.161466,-0.161659,-0.161659,-0.161659,-0.161659,-0.161658,-0.161659,-0.161659,-0.161659,-0.161659,nan,nan,nan,nan,nan,nan,nan,nan,nan,nan,nan,nan,nan,nan,nan,nan,nan,nan,nan,nan,nan,nan,nan,nan,nan,nan,nan,nan,nan,nan,nan,nan,nan,nan,nan,nan,nan,nan,nan,nan,nan,nan,nan,nan,nan,nan,nan,nan,nan,nan,nan,nan,nan,nan,nan,nan,nan,nan,nan,nan,nan,nan,nan,nan,nan,nan,nan,nan,nan,nan,nan,nan,nan,nan,nan,nan,nan,nan,nan,nan,nan,nan,nan,nan,nan,nan,nan,nan,nan,nan,nan,nan,nan,nan,nan,nan,nan,nan,nan,nan,nan,nan,nan,nan,nan,nan,nan,nan,nan,nan,nan,nan,nan,nan,nan,nan,nan,nan,nan,nan,nan,nan
-0.00412732,0.0356667,-0.161659,-0.0116588,0.121675,0.169591,0.138341,0.138341,0.138341,0.138341,0.138341,0.128943,0.122418,0.138341,-0.0366588,0.138341,0.105305,0.104368,0.0990759,0.0931592,0.0955545,0.0883413,0.0883413,0.0883413,0.110664,0.112974,0.108852,0.104707,0.138341,0.102627,0.0883413,0.0883413,0.090179,0.0860129,0.0806377,0.0727006,0.0527681,0.0887816,0.119721,0.134899,0.141545,0.142613,0.140699,0.138341,0.128341,0.138341,0.121675,0.118941,0.112966,0.112041,0.163125,0.173241,0.166792,0.171675,0.148341,0.138341,0.134796,0.138341,0.131511,0.138341,0.138664,0.14122,0.147069,0.159301,0.176319,0.190811,0.19583,0.194647,0.188341,0.188341,0.188341,0.188341,0.188341,0.188341,0.188341,0.188341,0.188341,0.188341,0.188341,0.188341,0.188341,0.188341,0.188341,0.188341,0.188341,0.188341,0.188341,0.188341,0.188341,0.188341,0.188341,0.188341,0.188341,0.188341,0.205008,0.208341,0.218341,0.221675,0.198341,0.188341,0.188341,0.188341,0.188341,0.188341,0.202627,0.198341,0.188341,0.216913,0.202627,0.205008,0.202627,0.188341,0.188341,0.188341,0.188341,0.195547,0.202601,0.238341,0.225841,0.218341,0.238341,0.238341,0.138341,0.0216746,-0.0616588,-0.0616588,-0.111659,-0.136659,-0.142428,-0.144992,-0.144992,-0.111659,-0.111659,-0.161659,-0.161659,-0.161659,-0.158443,-0.159178,-0.161659,-0.161659,-0.161659,-0.161659,-0.161659,-0.161262,-0.161202,-0.161193,-0.161659,-0.161659,-0.161659,-0.161659,-0.161659,-0.161659,-0.178325,-0.161659,-0.191659,-0.211659,-0.211659,-0.211659,-0.187755,-0.211659,-0.161659,-0.161659,-0.161659,-0.161659,-0.161659,-0.161659,-0.161659,-0.161659,-0.161659,-0.161659,-0.161659,-0.161659,-0.161659,-0.161659,-0.161659,-0.161659,-0.161659,-0.161659,-0.161659,nan,nan,nan,nan,nan,nan,nan,nan,nan,nan,nan,nan,nan,nan,nan,nan,nan,nan,nan,nan,nan,nan,nan,nan,nan,nan,nan,nan,nan,nan,nan,nan,nan,nan,nan,nan,nan,nan,nan,nan,nan,nan,nan,nan,nan,nan,nan,nan,nan,nan,nan,nan,nan,nan,nan,nan,nan,nan,nan,nan,nan,nan,nan,nan,nan,nan,nan,nan,nan,nan,nan,nan,nan,nan,nan,nan,nan,nan,nan,nan,nan,nan,nan,nan,nan,nan,nan,nan,nan,nan,nan,nan,nan,nan,nan,nan,nan,nan,nan,nan,nan,nan,nan,nan,nan,nan,nan,nan,nan,nan,nan,nan,nan,nan,nan,nan,nan,nan,nan,nan,nan
-0.0386108,0.00139535,0.0325984,0.0591973,-0.0116588,0.134175,0.138341,0.113341,-0.0616588,0.0883413,0.138341,0.138341,0.138341,0.0383412,0.138341,0.113341,0.0883413,0.0883413,0.0912217,0.087937,0.089095,0.0883413,0.0883413,0.0883413,0.0965476,0.0946211,0.0900471,0.0883413,0.0961954,0.0954563,0.0883413,0.0883413,0.0826741,0.0763585,0.0669071,0.053407,0.0414346,0.0534364,0.129876,0.139515,0.14011,0.138892,0.138341,0.138341,0.138341,0.113341,0.113282,0.0883413,0.100625,0.0964685,0.135731,0.169908,0.164808,0.15679,0.160563,0.145484,0.0883413,0.11639,0.117607,0.113341,0.138341,0.138341,0.138341,0.14187,0.15641,0.181924,0.19093,0.190441,0.188341,0.188341,0.188341,0.188341,0.188341,0.188341,0.188341,0.188341,0.188516,0.188341,0.188341,0.188341,0.188341,0.188341,0.188341,0.188341,0.188341,0.188341,0.188341,0.188341,0.188341,0.188341,0.188341,0.188341,0.188341,0.188341,0.202627,0.196675,0.213341,0.196675,0.224056,0.221675,0.188341,0.188341,0.188341,0.188341,0.188341,0.205008,0.208341,0.188341,0.188341,0.188341,0.188341,0.188341,0.188341,0.188341,0.188341,0.188341,0.198343,0.207157,0.238341,0.238341,0.238341,0.238341,0.238341,0.0830781,-0.0241588,-0.0727699,-0.111659,-0.111659,-0.111659,-0.144992,-0.161659,-0.161659,-0.161659,-0.161659,-0.161659,-0.161659,-0.161659,-0.161659,-0.161659,-0.161659,-0.161659,-0.161659,-0.161659,-0.161659,-0.161659,-0.161659,-0.161659,-0.161659,-0.161659,-0.161659,-0.161659,-0.211659,-0.211659,-0.211659,-0.192828,-0.211659,-0.211659,-0.211659,-0.211659,-0.181659,-0.178325,-0.161659,-0.161659,-0.161659,-0.161659,-0.161659,-0.161659,-0.161659,-0.161659,-0.161659,-0.161659,-0.161659,-0.161659,-0.161659,-0.161659,-0.161659,-0.161659,-0.161659,-0.161659,nan,nan,nan,nan,nan,nan,nan,nan,nan,nan,nan,nan,nan,nan,nan,nan,nan,nan,nan,nan,nan,nan,nan,nan,nan,nan,nan,nan,nan,nan,nan,nan,nan,nan,nan,nan,nan,nan,nan,nan,nan,nan,nan,nan,nan,nan,nan,nan,nan,nan,nan,nan,nan,nan,nan,nan,nan,nan,nan,nan,nan,nan,nan,nan,nan,nan,nan,nan,nan,nan,nan,nan,nan,nan,nan,nan,nan,nan,nan,nan,nan,nan,nan,nan,nan,nan,nan,nan,nan,nan,nan,nan,nan,nan,nan,nan,nan,nan,nan,nan,nan,nan,nan,nan,nan,nan,nan,nan,nan,nan,nan,nan,nan,nan,nan,nan,nan,nan,nan,nan,nan
-0.072654,-0.0334556,0.000900698,0.0331035,-0.0616588,0.0883413,0.154131,0.0883413,0.0735601,0.0883413,0.138341,0.138341,0.106855,0.0986487,0.113341,0.118341,0.0883413,0.0883413,0.0831386,0.0818329,0.0883413,0.0883413,0.0883413,0.0883413,0.0845984,0.075511,0.0689309,0.073278,0.0826864,0.0882157,0.0883413,0.0883413,0.0633412,0.0686422,0.0582962,0.0474902,0.0405434,0.0385658,0.0772335,0.136954,0.135265,0.132519,0.128761,0.123528,0.138341,0.0966746,0.0883413,0.0973601,0.0930333,0.0903632,0.109269,0.168136,0.163907,0.153938,0.188341,0.146675,0.0883413,0.0883413,0.108524,0.138341,0.105008,0.138341,0.126897,0.131597,0.139404,0.170282,0.188242,0.188681,0.188341,0.188341,0.188341,0.188345,0.188341,0.188341,0.188341,0.188341,0.188341,0.188341,0.188341,0.188341,0.188341,0.188341,0.188341,0.188341,0.188341,0.188341,0.188341,0.188341,0.188341,0.188341,0.188341,0.188341,0.188341,0.188341,0.188341,0.188341,0.188341,0.195484,0.200841,0.202627,0.224056,0.200841,0.188341,0.188341,0.188341,0.188341,0.188341,0.198341,0.188341,0.188341,0.188341,0.188341,0.188341,0.188341,0.188341,0.188341,0.188341,0.188341,0.204872,0.188341,0.188341,0.198341,0.238341,0.0292503,-0.00165875,-0.0866588,-0.111659,-0.110266,-0.12168,-0.111659,-0.111659,-0.111659,-0.111659,-0.14813,-0.155256,-0.159868,-0.161659,-0.161659,-0.161659,-0.161659,-0.161659,-0.161659,-0.161659,-0.161659,-0.161659,-0.161659,-0.161659,-0.161659,-0.161659,-0.183087,-0.186659,-0.189437,-0.19023,-0.186659,-0.194992,-0.183087,-0.194992,-0.194992,-0.194992,-0.186659,-0.161659,-0.161659,-0.161659,-0.161659,-0.161659,-0.161659,-0.163267,-0.16264,-0.162177,-0.161907,-0.161761,-0.16168,-0.161659,-0.161659,-0.161659,-0.161659,-0.161659,-0.161659,nan,nan,nan,nan,nan,nan,nan,nan,nan,nan,nan,nan,nan,nan,nan,nan,nan,nan,nan,nan,nan,nan,nan,nan,nan,nan,nan,nan,nan,nan,nan,nan,nan,nan,nan,nan,nan,nan,nan,nan,nan,nan,nan,nan,nan,nan,nan,nan,nan,nan,nan,nan,nan,nan,nan,nan,nan,nan,nan,nan,nan,nan,nan,nan,nan,nan,nan,nan,nan,nan,nan,nan,nan,nan,nan,nan,nan,nan,nan,nan,nan,nan,nan,nan,nan,nan,nan,nan,nan,nan,nan,nan,nan,nan,nan,nan,nan,nan,nan,nan,nan,nan,nan,nan,nan,nan,nan,nan,nan,nan,nan,nan,nan,nan,nan,nan,nan,nan,nan,nan,nan,nan
-0.0737562,-0.0574548,-0.0196162,0.0174735,0.0461089,0.0609251,0.0383412,0.0283413,-0.111659,0.0744143,0.113341,0.0883413,0.0988562,0.0883413,0.0883413,0.0483413,0.0883413,0.0778574,0.0692016,0.0683947,0.0883413,0.0883413,0.0633412,0.0801951,0.072117,0.061519,0.0565402,0.0383412,0.0656332,0.0783625,0.0814777,0.0883413,0.0811984,0.0383412,0.0529787,0.0448694,0.0400399,0.0385121,0.053037,0.127597,0.126717,0.122649,0.138341,0.112721,0.125841,0.0883413,0.0883413,0.0883413,0.0895526,0.0885995,0.0950657,0.166665,0.162354,0.149433,0.135232,0.121675,0.0883413,0.0883413,0.102443,0.106413,0.0883413,0.121675,0.138341,0.122622,0.12599,0.153408,0.186922,0.18836,0.188341,0.188341,0.188341,0.188341,0.188411,0.188341,0.188341,0.188341,0.188341,0.188341,0.188341,0.188341,0.188341,0.188341,0.188341,0.188341,0.188341,0.188341,0.188341,0.188341,0.188341,0.188341,0.188341,0.188341,0.188341,0.188341,0.188341,0.188341,0.188341,0.188341,0.188341,0.188341,0.188341,0.200841,0.208341,0.188341,0.188341,0.188341,0.188341,0.188341,0.188341,0.188341,0.188341,0.188341,0.188341,0.188341,0.188341,0.188341,0.188341,0.188341,0.188341,0.188341,0.238341,0.205008,0.188341,0.0695912,-0.00332542,-0.0783254,-0.111659,-0.111659,-0.111659,-0.111659,-0.134761,-0.139737,-0.111659,-0.161659,-0.161659,-0.160349,-0.161538,-0.161658,-0.161659,-0.161659,-0.161667,-0.161659,-0.161659,-0.161659,-0.161659,-0.161659,-0.161659,-0.161659,-0.161659,-0.186659,-0.211659,-0.211659,-0.211659,-0.211659,-0.211659,-0.204307,-0.20439,-0.203827,-0.201574,-0.211659,-0.211659,-0.211659,-0.211659,-0.180569,-0.176745,-0.173173,-0.170095,-0.16754,-0.165587,-0.16407,-0.162818,-0.162011,-0.161706,-0.161659,-0.161659,-0.161659,-0.161659,-0.161659,nan,nan,nan,nan,nan,nan,nan,nan,nan,nan,nan,nan,nan,nan,nan,nan,nan,nan,nan,nan,nan,nan,nan,nan,nan,nan,nan,nan,nan,nan,nan,nan,nan,nan,nan,nan,nan,nan,nan,nan,nan,nan,nan,nan,nan,nan,nan,nan,nan,nan,nan,nan,nan,nan,nan,nan,nan,nan,nan,nan,nan,nan,nan,nan,nan,nan,nan,nan,nan,nan,nan,nan,nan,nan,nan,nan,nan,nan,nan,nan,nan,nan,nan,nan,nan,nan,nan,nan,nan,nan,nan,nan,nan,nan,nan,nan,nan,nan,nan,nan,nan,nan,nan,nan,nan,nan,nan,nan,nan,nan,nan,nan,nan,nan,nan,nan,nan,nan,nan,nan,nan,nan
0.081084,0.0340698,-0.0125896,0.011853,0.0390524,0.0521087,0.0169127,0.0550079,0.0883413,0.0728457,0.0883413,0.0883413,0.0916338,0.0883413,0.0883413,0.0883413,0.0883413,0.0626459,0.0383412,0.0468398,0.0566025,0.0668248,0.0716308,0.0671021,0.0571423,0.0883413,0.0383412,0.0633412,0.0532813,0.0658409,0.0721273,0.0684798,0.0883413,0.0550079,0.0483178,0.0383412,0.0392785,0.0382517,0.0465669,0.115948,0.117055,0.11267,0.138341,0.0883413,0.0883413,0.0883413,0.0883413,0.0871788,0.0868112,0.0872739,0.0889186,0.159553,0.157927,0.142743,0.129051,0.117991,0.125841,0.0883413,0.0883413,0.100835,0.0883413,0.102627,0.138341,0.112695,0.111903,0.124054,0.180239,0.188235,0.188341,0.188341,0.188341,0.188341,0.188341,0.188341,0.188341,0.188341,0.188341,0.188341,0.188341,0.188341,0.188341,0.188341,0.189952,0.188341,0.188341,0.188341,0.188341,0.188341,0.188341,0.188341,0.188341,0.188341,0.188341,0.188341,0.188341,0.188341,0.188341,0.188341,0.188341,0.188341,0.188341,0.188341,0.188341,0.205008,0.198341,0.188341,0.188341,0.188341,0.188341,0.188341,0.188341,0.188341,0.188341,0.188341,0.188341,0.189664,0.188341,0.188341,0.188341,0.188341,0.201642,0.238341,0.238341,0.0855635,-0.034386,-0.0616588,-0.119992,-0.138931,-0.141659,-0.128325,-0.161659,-0.161659,-0.161659,-0.161659,-0.158729,-0.161659,-0.161659,-0.161659,-0.161659,-0.161659,-0.161735,-0.162099,-0.16298,-0.164436,-0.166304,-0.168449,-0.161659,-0.161659,-0.186659,-0.211659,-0.211659,-0.211659,-0.211659,-0.211659,-0.211659,-0.211659,-0.211659,-0.211659,-0.211659,-0.211659,-0.202434,-0.200478,-0.198646,-0.195917,-0.191537,-0.185707,-0.17968,-0.161659,-0.161659,-0.167932,-0.161659,-0.161659,-0.161659,-0.161659,-0.161659,-0.161659,-0.161659,-0.161659,-0.161659,nan,nan,nan,nan,nan,nan,nan,nan,nan,nan,nan,nan,nan,nan,nan,nan,nan,nan,nan,nan,nan,nan,nan,nan,nan,nan,nan,nan,nan,nan,nan,nan,nan,nan,nan,nan,nan,nan,nan,nan,nan,nan,nan,nan,nan,nan,nan,nan,nan,nan,nan,nan,nan,nan,nan,nan,nan,nan,nan,nan,nan,nan,nan,nan,nan,nan,nan,nan,nan,nan,nan,nan,nan,nan,nan,nan,nan,nan,nan,nan,nan,nan,nan,nan,nan,nan,nan,nan,nan,nan,nan,nan,nan,nan,nan,nan,nan,nan,nan,nan,nan,nan,nan,nan,nan,nan,nan,nan,nan,nan,nan,nan,nan,nan,nan,nan,nan,nan,nan,nan,nan
0.0848415,0.0832995,0.0619543,0.0295335,0.0481356,0.0579492,0.0612402,0.0883413,0.0688966,0.0883413,0.0883413,0.0883413,0.0883413,0.0883413,0.0883413,0.0883413,0.0466746,0.0883413,0.0293576,0.0383412,0.0383412,0.0469097,0.0515975,0.0473635,0.042403,0.0383412,0.0550079,0.0409541,0.0424379,0.0495249,0.056701,0.0564911,0.0716746,0.0508412,0.0383412,0.0383412,0.0383199,0.03767,0.0416536,0.102972,0.108313,0.104416,0.0883413,0.0883413,0.0883413,0.083728,0.0883413,0.0806964,0.0809204,0.0808086,0.0762847,0.0768134,0.145942,0.13532,0.125349,0.117706,0.138341,0.113341,0.0883413,0.0989674,0.0883413,0.102627,0.0883413,0.103248,0.0993984,0.0981956,0.148527,0.187018,0.188341,0.188341,0.188341,0.18838,0.189134,0.188341,0.188341,0.202627,0.311871,0.266913,0.188341,0.188341,0.210563,0.200841,0.188341,0.188341,0.188341,0.188341,0.188341,0.188341,0.188341,0.188341,0.188341,0.188341,0.188341,0.188341,0.188341,0.188341,0.188341,0.188341,0.200841,0.188341,0.188341,0.188341,0.188341,0.188341,0.188341,0.19038,0.189308,0.188341,0.188545,0.188767,0.18977,0.188341,0.205008,0.205008,0.198341,0.188341,0.188341,0.189185,0.188341,0.188341,0.205008,0.216119,0.221675,0.133796,-0.0188016,-0.0707497,-0.0783254,-0.136659,-0.142909,-0.154516,-0.161659,-0.161659,-0.161659,-0.161659,-0.161659,-0.161659,-0.161659,-0.161659,-0.161659,-0.161659,-0.161659,-0.161659,-0.161659,-0.169931,-0.175313,-0.180234,-0.184638,-0.189747,-0.196016,-0.202441,-0.207325,-0.209889,-0.21074,-0.210859,-0.210806,-0.210767,-0.210805,-0.21084,-0.21063,-0.21011,-0.209516,-0.208817,-0.211659,-0.211659,-0.211659,-0.211659,-0.194992,-0.161659,-0.161659,-0.161659,-0.161659,-0.161659,-0.162463,-0.161752,-0.161659,-0.161659,-0.161659,-0.161659,nan,nan,nan,nan,nan,nan,nan,nan,nan,nan,nan,nan,nan,nan,nan,nan,nan,nan,nan,nan,nan,nan,nan,nan,nan,nan,nan,nan,nan,nan,nan,nan,nan,nan,nan,nan,nan,nan,nan,nan,nan,nan,nan,nan,nan,nan,nan,nan,nan,nan,nan,nan,nan,nan,nan,nan,nan,nan,nan,nan,nan,nan,nan,nan,nan,nan,nan,nan,nan,nan,nan,nan,nan,nan,nan,nan,nan,nan,nan,nan,nan,nan,nan,nan,nan,nan,nan,nan,nan,nan,nan,nan,nan,nan,nan,nan,nan,nan,nan,nan,nan,nan,nan,nan,nan,nan,nan,nan,nan,nan,nan,nan,nan,nan,nan,nan,nan,nan,nan,nan,nan,nan
0.0832545,0.0832824,0.0829968,0.076384,0.0730266,0.0735352,0.0739355,0.0966746,0.0776265,0.0883413,0.052627,0.0883413,0.0883413,0.0883413,0.0883413,0.0758412,0.0883413,0.0324024,-0.161659,0.0383412,0.0383412,0.0348824,0.0373145,0.0341442,0.0383412,0.0383412,0.0383412,0.0383412,0.0273916,0.0333539,0.0428703,0.0383412,0.0383412,0.0383412,0.0258412,0.0383412,0.0367647,0.0355848,0.0351152,0.0764922,0.0999981,0.097018,0.0918726,0.0883413,0.0785351,0.0383412,0.0883413,0.0883413,0.0703815,0.0640628,0.0452103,0.0136167,0.0355805,0.127692,0.125669,0.120169,0.114584,0.121675,0.10245,0.0883413,0.100906,0.138341,0.0983412,0.0883413,0.090474,0.0860044,0.0968838,0.176579,0.188329,0.188341,0.188341,0.188402,0.189868,0.198302,0.217662,0.241095,0.363341,0.313341,0.232756,0.208779,0.195005,0.188341,0.188341,0.205008,0.188341,0.188341,0.188341,0.176324,0.177243,0.180489,0.184631,0.186672,0.188341,0.188341,0.188341,0.188341,0.188341,0.188341,0.188341,0.188341,0.188341,0.213341,0.185923,0.187424,0.189234,0.189757,0.189065,0.188518,0.188428,0.188957,0.190657,0.192935,0.194573,0.194612,0.193056,0.188341,0.189409,0.189051,0.191142,0.195264,0.191287,0.188341,0.188341,0.113341,-0.0416588,-0.0716588,-0.0889315,-0.101659,-0.097373,-0.097373,-0.111659,-0.111659,-0.142625,-0.161659,-0.161659,-0.161659,-0.161659,-0.161659,-0.161659,-0.161659,-0.161659,-0.161659,-0.161659,-0.175944,-0.169992,-0.183087,-0.201659,-0.211659,-0.211659,-0.211659,-0.211659,-0.211659,-0.211659,-0.211659,-0.211659,-0.211659,-0.211659,-0.211659,-0.212577,-0.211659,-0.211659,-0.211659,-0.211659,-0.211659,-0.178325,-0.161659,-0.161659,-0.211659,-0.211659,-0.194992,-0.172476,-0.167108,-0.163458,-0.161928,-0.161661,-0.161659,-0.161659,-0.161659,nan,nan,nan,nan,nan,nan,nan,nan,nan,nan,nan,nan,nan,nan,nan,nan,nan,nan,nan,nan,nan,nan,nan,nan,nan,nan,nan,nan,nan,nan,nan,nan,nan,nan,nan,nan,nan,nan,nan,nan,nan,nan,nan,nan,nan,nan,nan,nan,nan,nan,nan,nan,nan,nan,nan,nan,nan,nan,nan,nan,nan,nan,nan,nan,nan,nan,nan,nan,nan,nan,nan,nan,nan,nan,nan,nan,nan,nan,nan,nan,nan,nan,nan,nan,nan,nan,nan,nan,nan,nan,nan,nan,nan,nan,nan,nan,nan,nan,nan,nan,nan,nan,nan,nan,nan,nan,nan,nan,nan,nan,nan,nan,nan,nan,nan,nan,nan,nan,nan,nan,nan,nan
0.0883413,0.0808111,0.080594,0.0827541,0.0834689,0.0820148,0.0883413,0.0466746,0.0802792,0.0883413,0.0883413,0.0883413,0.0883413,0.0883413,0.0883413,0.0633412,0.0383412,-0.0366587,0.00919725,0.0383412,0.0383412,0.0383412,0.0308487,0.0277473,0.0383412,-0.0116588,-0.0116588,0.0115824,0.0124623,0.0220078,0.0345684,0.0383412,0.0383412,0.0383412,0.0494524,0.0383412,0.03346,0.0294792,0.0225095,0.0219691,0.0778525,0.0876983,0.0817234,0.0738299,0.066831,0.0633308,0.0383412,0.0716746,0.0562057,0.0440001,0.0255515,0.00806049,-0.00168745,0.0676746,0.127328,0.123194,0.117459,0.110794,0.10412,0.10078,0.100759,0.0987138,0.0954841,0.0758412,0.0840275,0.080016,0.0779345,0.115477,0.188241,0.188341,0.188341,0.188391,0.190638,0.204394,0.233882,0.265073,0.281013,0.27629,0.249256,0.210106,0.190146,0.184574,0.188341,0.188341,0.155008,0.175841,0.163341,0.188341,0.138341,0.165553,0.174676,0.188341,0.188341,0.188341,0.188341,0.175563,0.163341,0.179738,0.182028,0.180826,0.171675,0.170678,0.167281,0.167255,0.171814,0.180476,0.186776,0.18818,0.188383,0.189157,0.191633,0.194556,0.196332,0.195792,0.193439,0.190996,0.189372,0.188923,0.190463,0.188641,0.165905,0.120939,0.0693071,-0.0116588,-0.0616588,-0.0616588,-0.0616588,-0.0929088,-0.111659,-0.102284,-0.111659,-0.103325,-0.136659,-0.161659,-0.157089,-0.161659,-0.161659,-0.161659,-0.161659,-0.161659,-0.161659,-0.161659,-0.161659,-0.199159,-0.174159,-0.211659,-0.211659,-0.211659,-0.211659,-0.211659,-0.211659,-0.211659,-0.211659,-0.217958,-0.211659,-0.211659,-0.211659,-0.211659,-0.211659,-0.211659,-0.211659,-0.211659,-0.211659,-0.209619,-0.211659,-0.211659,-0.211659,-0.191451,-0.188845,-0.184525,-0.178119,-0.170959,-0.165171,-0.162238,-0.161659,-0.161659,-0.161659,-0.161659,nan,nan,nan,nan,nan,nan,nan,nan,nan,nan,nan,nan,nan,nan,nan,nan,nan,nan,nan,nan,nan,nan,nan,nan,nan,nan,nan,nan,nan,nan,nan,nan,nan,nan,nan,nan,nan,nan,nan,nan,nan,nan,nan,nan,nan,nan,nan,nan,nan,nan,nan,nan,nan,nan,nan,nan,nan,nan,nan,nan,nan,nan,nan,nan,nan,nan,nan,nan,nan,nan,nan,nan,nan,nan,nan,nan,nan,nan,nan,nan,nan,nan,nan,nan,nan,nan,nan,nan,nan,nan,nan,nan,nan,nan,nan,nan,nan,nan,nan,nan,nan,nan,nan,nan,nan,nan,nan,nan,nan,nan,nan,nan,nan,nan,nan,nan,nan,nan,nan,nan,nan,nan
0.0716746,0.0761892,0.0745986,0.0767821,0.081766,0.0821386,0.0883413,0.0883413,0.0770991,0.0765603,0.0883413,0.0883413,0.0883413,0.0550079,0.0633412,0.0383412,0.0385661,0.0383412,-0.00137017,0.0383412,0.0383412,0.0383412,0.0383412,0.0383412,0.0383412,-0.0116588,-0.0116588,0.000723576,-0.0116588,0.0139341,0.0383412,0.0367453,0.0390951,0.0382259,0.0383412,0.0258412,0.0383412,0.0202927,0.00946122,-0.00125751,0.00961654,0.0612172,0.0664686,0.0595667,0.0383412,0.0533128,0.0532384,0.0383412,0.0419324,0.0299807,0.0172205,0.00622413,-0.00233143,-0.0029606,0.105954,0.124756,0.119476,0.112439,0.105105,0.101455,0.0994626,0.094312,0.0882054,0.0633412,0.0785761,0.0752262,0.0725096,0.0704213,0.185045,0.188341,0.188341,0.188353,0.190874,0.212125,0.255637,0.292909,0.3074,0.299327,0.25218,0.194048,0.178316,0.188341,0.188341,0.163341,0.138341,0.138341,0.138341,0.138341,0.144769,0.144367,0.154136,0.166804,0.170211,0.188341,0.138341,0.162185,0.163787,0.167798,0.188341,0.165669,0.155875,0.138341,0.163341,0.132955,0.125778,0.11921,0.127986,0.159771,0.182295,0.18914,0.192377,0.195877,0.197776,0.196142,0.192795,0.190325,0.189018,0.188648,0.185447,0.150669,0.0966342,0.0542907,0.0220447,-0.0116588,-0.0241588,-0.0616588,-0.0616588,-0.0616588,-0.0616588,-0.0616588,-0.0916587,-0.111659,-0.111659,-0.161659,-0.161659,-0.161659,-0.162437,-0.162569,-0.162504,-0.162484,-0.161659,-0.161659,-0.141659,-0.211659,-0.211659,-0.208093,-0.215965,-0.221782,-0.211659,-0.211659,-0.227916,-0.2293,-0.229667,-0.211659,-0.211659,-0.211659,-0.211659,-0.211659,-0.211659,-0.211659,-0.211659,-0.21703,-0.22005,-0.219795,-0.214342,-0.206737,-0.200619,-0.197619,-0.195814,-0.191989,-0.185202,-0.176634,-0.168122,-0.162667,-0.161659,-0.161659,nan,nan,nan,nan,nan,nan,nan,nan,nan,nan,nan,nan,nan,nan,nan,nan,nan,nan,nan,nan,nan,nan,nan,nan,nan,nan,nan,nan,nan,nan,nan,nan,nan,nan,nan,nan,nan,nan,nan,nan,nan,nan,nan,nan,nan,nan,nan,nan,nan,nan,nan,nan,nan,nan,nan,nan,nan,nan,nan,nan,nan,nan,nan,nan,nan,nan,nan,nan,nan,nan,nan,nan,nan,nan,nan,nan,nan,nan,nan,nan,nan,nan,nan,nan,nan,nan,nan,nan,nan,nan,nan,nan,nan,nan,nan,nan,nan,nan,nan,nan,nan,nan,nan,nan,nan,nan,nan,nan,nan,nan,nan,nan,nan,nan,nan,nan,nan,nan,nan,nan,nan,nan,nan,nan
0.0883413,0.0883413,0.0652698,0.0666668,0.0736356,0.0883413,0.0883413,0.0883413,0.068075,0.0633412,0.0883413,0.0625703,0.0883413,-0.0116588,0.0383412,0.0436037,0.0313883,-0.000427917,-0.0202377,-0.0866588,0.00262696,0.0183412,0.0141805,-0.0116588,0.0383412,0.00649942,-0.0116588,-0.0116588,0.0133412,0.00688358,0.0383412,0.0321321,0.0376037,0.0369146,0.0383412,0.0383412,0.00834125,0.0123122,0.00145832,-0.00722338,-0.0112061,0.00461678,0.0404696,0.0454682,0.0445589,0.0450236,0.0438864,0.038609,0.0383412,0.0383412,-0.0116588,0.00397676,-0.00396988,-0.0111531,-0.00424935,0.111181,0.120696,0.11393,0.105255,0.100269,0.0950475,0.0875062,0.0813686,0.0768454,0.0734249,0.0706513,0.0681397,0.0659222,nan,nan,nan,0.188341,0.188341,0.222897,0.290332,0.32484,0.330709,0.306826,0.209329,0.170157,0.166515,0.163341,0.175841,0.155008,0.138341,0.138341,0.138341,0.138341,0.138341,0.128353,0.133643,0.138341,0.1563,0.155008,0.138341,0.138341,0.171675,0.138341,0.188341,0.147216,0.135207,0.121675,0.113341,0.109588,0.0969634,0.0819363,0.0710165,0.0692209,0.0731827,0.100416,0.190744,0.195859,0.198369,0.194475,0.190689,0.189095,0.188759,0.205559,0.203573,0.0870465,0.0428388,0.0215234,-0.0116588,-0.0116588,-0.0330873,-0.0516588,-0.0616588,-0.0616588,-0.0672143,-0.0798406,-0.0966588,-0.0866588,-0.142909,-0.161659,-0.158711,-0.161659,-0.161659,-0.161659,-0.161659,-0.161659,-0.161659,-0.172784,-0.183021,-0.211659,-0.211659,-0.211659,-0.221659,-0.211659,-0.241659,-0.261659,-0.241659,-0.24023,-0.261659,-0.254516,-0.228325,-0.211659,-0.228947,-0.244992,-0.261659,-0.229688,-0.228913,-0.232938,-0.239044,-0.261659,-0.211659,-0.222516,-0.211871,-0.205441,-0.2041,-0.20113,-0.194003,-0.184721,-0.173128,-0.162561,nan,nan,nan,nan,nan,nan,nan,nan,nan,nan,nan,nan,nan,nan,nan,nan,nan,nan,nan,nan,nan,nan,nan,nan,nan,nan,nan,nan,nan,nan,nan,nan,nan,nan,nan,nan,nan,nan,nan,nan,nan,nan,nan,nan,nan,nan,nan,nan,nan,nan,nan,nan,nan,nan,nan,nan,nan,nan,nan,nan,nan,nan,nan,nan,nan,nan,nan,nan,nan,nan,nan,nan,nan,nan,nan,nan,nan,nan,nan,nan,nan,nan,nan,nan,nan,nan,nan,nan,nan,nan,nan,nan,nan,nan,nan,nan,nan,nan,nan,nan,nan,nan,nan,nan,nan,nan,nan,nan,nan,nan,nan,nan,nan,nan,nan,nan,nan,nan,nan,nan,nan,nan,nan,nan,nan,nan
0.0783412,0.0383412,0.0541819,0.0550355,0.0611914,0.0783412,0.0883413,0.0633412,0.0537673,0.0383412,0.0550079,0.0383412,0.0383412,0.0383412,0.0383412,0.0345133,0.0249371,-0.0161608,-0.0419568,-0.211659,0.0383412,0.00262696,0.00396511,-0.0116588,0.0383412,0.00278095,-0.0116588,-0.0116588,-0.0116588,-0.000795532,0.00879085,0.0230173,0.0352713,0.0360438,0.0383412,0.0383412,0.00500791,-0.0116588,-0.0116588,-0.0116093,-0.0192858,-0.0278206,-0.0206542,0.0107885,0.0304596,0.033982,0.0303999,0.0258884,0.0383412,0.0383412,-0.0116588,-0.000802017,-0.0101557,-0.0211467,-0.0348962,-0.04468,0.0501391,0.116281,0.105032,0.0949028,0.0854104,0.077828,0.0726905,0.0688368,0.0658371,0.0635517,0.0622179,0.063689,nan,nan,nan,nan,nan,0.275798,0.357249,0.352678,0.342687,0.23843,0.160971,0.157078,0.157759,0.138341,0.138341,0.163341,0.138341,0.138341,0.130008,0.138341,0.138341,0.0883413,0.138341,0.13167,0.144259,0.138341,0.138341,0.138341,0.138341,0.188341,0.138341,0.131739,0.138341,0.100841,0.10977,0.0883413,0.0834574,0.0717552,0.0637611,0.0589582,0.054284,0.0468969,0.0383412,nan,0.196675,0.188805,0.188411,0.188341,0.384973,0.650794,0.55877,0.309569,0.142489,0.0658279,0.0383412,-0.0116588,-0.0259445,-0.0571133,-0.0616588,-0.0616588,-0.0616588,-0.111659,-0.111659,-0.104516,-0.154516,-0.161659,-0.165793,-0.170784,-0.171223,-0.170032,-0.161659,-0.161659,-0.161659,-0.161659,-0.161659,-0.211659,-0.211659,-0.224159,-0.251659,-0.261659,-0.261659,-0.249159,-0.242909,-0.241659,-0.255409,-0.261659,-0.261659,-0.244932,-0.2436,-0.244516,-0.24674,-0.250145,-0.256627,-0.264844,-0.266235,-0.261659,-0.253417,-0.243881,-0.232752,-0.228695,-0.241309,-0.248293,-0.247558,-0.242521,-0.228318,nan,nan,nan,nan,nan,nan,nan,nan,nan,nan,nan,nan,nan,nan,nan,nan,nan,nan,nan,nan,nan,nan,nan,nan,nan,nan,nan,nan,nan,nan,nan,nan,nan,nan,nan,nan,nan,nan,nan,nan,nan,nan,nan,nan,nan,nan,nan,nan,nan,nan,nan,nan,nan,nan,nan,nan,nan,nan,nan,nan,nan,nan,nan,nan,nan,nan,nan,nan,nan,nan,nan,nan,nan,nan,nan,nan,nan,nan,nan,nan,nan,nan,nan,nan,nan,nan,nan,nan,nan,nan,nan,nan,nan,nan,nan,nan,nan,nan,nan,nan,nan,nan,nan,nan,nan,nan,nan,nan,nan,nan,nan,nan,nan,nan,nan,nan,nan,nan,nan,nan,nan,nan,nan,nan,nan,nan,nan
0.0695913,0.0383412,0.0445827,0.0383412,0.0488817,0.0597698,0.0383412,0.0383412,0.0390871,0.0383412,0.0383412,0.0383412,0.0383412,0.0383412,0.0258412,0.0383412,0.0209099,-0.0154837,-0.0443604,-0.0333544,-0.0187988,0.00709125,-0.0116588,-0.0116588,-0.000467433,-0.00255827,-0.00866447,-0.012723,-0.0116588,-0.0116588,-0.00593901,0.00537296,0.0275565,0.034966,0.0316739,0.0383412,0.0383412,-0.0116588,-0.0116588,-0.0116588,-0.0312552,-0.0451936,-0.0539356,-0.0498857,-0.0311209,-0.0054931,0.00570641,0.00905427,0.00859122,-0.0116588,-0.00075346,-0.0116588,-0.0210449,-0.0333218,-0.0451874,-0.0549785,-0.0605009,-0.0568274,nan,nan,0.0368953,0.0322527,0.0277648,0.0232747,0.0187644,0.0142916,0.00997238,0.00753915,nan,nan,nan,nan,nan,nan,nan,nan,nan,0.144447,0.147015,0.149353,0.150661,0.150373,0.148104,0.138341,0.138341,0.138341,0.138341,0.100841,0.113341,0.0883413,0.107189,0.115261,0.132813,0.140297,0.138341,0.138341,0.138341,0.138341,0.125841,0.138341,0.0883413,0.103082,0.113341,0.0954841,0.0383412,0.0883413,0.0601575,0.0550886,0.049641,0.043039,0.0383413,nan,nan,nan,nan,0.682254,0.685018,0.671588,0.646054,0.536346,0.352664,0.195368,0.0550079,0.0383412,-0.000547642,-0.0266588,-0.0366588,-0.0616588,-0.0616588,-0.0809508,-0.0616588,-0.118376,-0.144992,-0.169992,-0.161659,-0.183881,-0.184386,-0.189437,-0.175944,-0.182492,-0.194992,-0.199159,-0.205409,-0.211659,-0.216836,-0.231681,-0.261659,-0.261659,-0.261659,-0.261659,-0.250335,-0.252344,-0.261659,-0.261659,-0.261659,-0.261659,-0.261659,-0.261659,-0.261659,-0.261659,-0.275579,-0.284819,-0.284553,-0.261659,-0.272112,-0.267468,-0.266767,-0.269019,-0.267025,-0.264955,-0.264543,-0.26433,-0.26305,nan,nan,nan,nan,nan,nan,nan,nan,nan,nan,nan,nan,nan,nan,nan,nan,nan,nan,nan,nan,nan,nan,nan,nan,nan,nan,nan,nan,nan,nan,nan,nan,nan,nan,nan,nan,nan,nan,nan,nan,nan,nan,nan,nan,nan,nan,nan,nan,nan,nan,nan,nan,nan,nan,nan,nan,nan,nan,nan,nan,nan,nan,nan,nan,nan,nan,nan,nan,nan,nan,nan,nan,nan,nan,nan,nan,nan,nan,nan,nan,nan,nan,nan,nan,nan,nan,nan,nan,nan,nan,nan,nan,nan,nan,nan,nan,nan,nan,nan,nan,nan,nan,nan,nan,nan,nan,nan,nan,nan,nan,nan,nan,nan,nan,nan,nan,nan,nan,nan,nan,nan,nan,nan,nan,nan,nan,nan
-0.00332542,0.0383412,0.0378535,0.0383412,0.0406091,0.0383412,0.0383412,-0.0866588,0.0298523,0.0383412,0.0383412,0.0383412,0.0383412,-0.0116588,0.0258412,0.0383412,0.0149786,-0.00629333,-0.0262347,-0.0240066,-0.0116588,-0.0116588,-0.0116588,-0.0116588,-0.0116588,-0.0105869,-0.0172925,-0.0218984,-0.0116588,-0.0242321,-0.0223899,-0.0159901,0.00336999,0.0268582,0.0302556,0.0231238,0.0383412,-0.0045159,-0.0116588,-0.027745,-0.04262,-0.0542028,-0.0598167,-0.0608476,-0.0552535,-0.0343267,-0.0161032,-0.00771599,-0.0116588,-0.00590094,-0.0108103,-0.0196862,-0.0304466,-0.0407342,-0.0495371,-0.0562851,-0.060236,-0.0616588,nan,nan,-0.0107669,-0.00757436,-0.00441302,-0.00165782,0.00075572,0.00294934,0.00497788,0.00649764,0.00592504,0.000841247,nan,nan,nan,nan,nan,nan,nan,0.139037,0.141385,0.143349,0.144789,0.144871,0.142816,0.138805,0.138341,0.138341,0.138341,0.118341,0.0966746,0.0883413,0.0968579,0.0979218,0.113433,0.133185,0.137699,0.138341,0.138341,0.113341,0.125841,0.0883413,0.0883413,0.0883413,0.102627,0.0820912,0.0633413,0.0550079,0.0383412,0.0515978,0.0442608,0.0354087,0.0281135,0.0133536,nan,nan,1.06647,0.816896,0.747914,0.709446,0.683972,0.63434,0.52263,0.36458,0.0383412,0.0454841,0.155008,0.0508412,-0.0116588,-0.0533254,-0.0616588,-0.0991587,-0.0616588,-0.123467,-0.151685,-0.203325,-0.211659,-0.19023,-0.161659,-0.175944,-0.161659,-0.171659,-0.183881,-0.174159,-0.192909,-0.211659,-0.221271,-0.236993,-0.248395,-0.252171,-0.251848,-0.261659,-0.236659,-0.254796,-0.25872,-0.261659,-0.261659,-0.261659,-0.257486,-0.256535,-0.259156,-0.261659,-0.311659,-0.311659,-0.311659,-0.311659,-0.28496,-0.28423,-0.283802,-0.280057,-0.276098,-0.274649,-0.275342,-0.277357,-0.281528,nan,nan,nan,nan,nan,nan,nan,nan,nan,nan,nan,nan,nan,nan,nan,nan,nan,nan,nan,nan,nan,nan,nan,nan,nan,nan,nan,nan,nan,nan,nan,nan,nan,nan,nan,nan,nan,nan,nan,nan,nan,nan,nan,nan,nan,nan,nan,nan,nan,nan,nan,nan,nan,nan,nan,nan,nan,nan,nan,nan,nan,nan,nan,nan,nan,nan,nan,nan,nan,nan,nan,nan,nan,nan,nan,nan,nan,nan,nan,nan,nan,nan,nan,nan,nan,nan,nan,nan,nan,nan,nan,nan,nan,nan,nan,nan,nan,nan,nan,nan,nan,nan,nan,nan,nan,nan,nan,nan,nan,nan,nan,nan,nan,nan,nan,nan,nan,nan,nan,nan,nan,nan,nan,nan,nan,nan,nan
0.0445912,0.0383412,0.0383412,0.0383412,0.0383412,0.0383412,0.0383412,0.0383412,0.0383412,0.0383412,0.0383412,0.0383412,-0.0449921,0.0133412,-0.0116588,-0.0116588,0.00513241,-0.00768837,-0.0183437,-0.0116588,-0.0116588,-0.0116588,-0.0176874,-0.0158915,-0.0154969,-0.0205999,-0.0116588,-0.0116588,-0.0616588,-0.036127,-0.0325763,-0.0237436,-0.0132622,0.00279865,0.0220114,0.0202557,0.00884357,0.0216746,-0.0316588,-0.0616588,-0.0616588,-0.0616588,-0.0616588,-0.0613831,-0.0576849,-0.0437281,-0.0276842,-0.0116588,-0.0116588,-0.014626,-0.0116588,-0.0116588,-0.0366588,-0.0616588,-0.0518993,-0.057114,-0.0603717,-0.0616344,-0.0616588,nan,-0.0100424,-0.0067397,-0.00314971,0.000124247,0.00280836,0.00470245,0.0054647,0.00407919,-0.00240895,-0.0189031,-0.0353054,nan,nan,nan,nan,nan,nan,nan,0.138608,0.139485,0.140514,0.140256,0.136771,0.131282,0.125348,0.138341,0.0883413,0.138341,0.102627,0.0883413,0.0883413,0.0853049,0.0886918,0.113582,0.13237,0.131196,0.124929,0.138341,0.0883413,0.0883413,0.0883413,0.0900982,0.0830219,0.0740555,0.0597698,0.0716746,0.0383412,0.0462981,0.035094,0.0211391,0.00645207,-0.010267,nan,nan,1.10979,0.98836,0.878828,0.801467,0.748557,0.688341,0.598341,1.07167,0.370997,0.194591,0.169224,0.105008,0.00500791,-0.103325,-0.106659,-0.0949921,-0.0949921,-0.130705,-0.161659,-0.161659,-0.186659,-0.186659,-0.161659,-0.161659,-0.161659,-0.184015,-0.161659,-0.161659,-0.211659,-0.211659,-0.233881,-0.261659,-0.250572,-0.236659,-0.242909,-0.234386,-0.236659,-0.261659,-0.261659,-0.261659,-0.261659,-0.251659,-0.261659,-0.241659,-0.224159,-0.261659,-0.275472,-0.284216,-0.288436,-0.288744,-0.287843,-0.286958,-0.285562,-0.28429,-0.261659,-0.286256,-0.289313,-0.293606,-0.30254,-0.351172,nan,nan,nan,nan,nan,nan,nan,nan,nan,nan,nan,nan,nan,nan,nan,nan,nan,nan,nan,nan,nan,nan,nan,nan,nan,nan,nan,nan,nan,nan,nan,nan,nan,nan,nan,nan,nan,nan,nan,nan,nan,nan,nan,nan,nan,nan,nan,nan,nan,nan,nan,nan,nan,nan,nan,nan,nan,nan,nan,nan,nan,nan,nan,nan,nan,nan,nan,nan,nan,nan,nan,nan,nan,nan,nan,nan,nan,nan,nan,nan,nan,nan,nan,nan,nan,nan,nan,nan,nan,nan,nan,nan,nan,nan,nan,nan,nan,nan,nan,nan,nan,nan,nan,nan,nan,nan,nan,nan,nan,nan,nan,nan,nan,nan,nan,nan,nan,nan,nan,nan,nan,nan,nan,nan,nan,nan
0.0383412,0.0383412,0.027515,0.0383412,0.0383412,0.0383412,0.0383412,0.0302871,0.0383412,-0.0116588,0.0383412,0.0383412,-0.0116588,-0.0116588,-0.00290065,-0.00265772,-0.00564742,-0.0149783,-0.0116588,-0.0116588,-0.0366588,-0.0116588,-0.0295783,-0.0116588,-0.0116588,-0.0317948,-0.0396138,-0.0366588,-0.0283254,-0.0616588,-0.0365719,-0.0116588,-0.0166872,-0.0111649,0.00301588,0.0125137,0.0026713,0.0383412,-0.0227699,-0.0616588,-0.0616588,-0.0616588,-0.0616588,-0.0616381,-0.0593381,-0.0616588,-0.035939,-0.0116588,-0.0212769,-0.0116588,-0.0225213,-0.0216588,-0.0366588,-0.0616588,-0.0539344,-0.0582222,-0.0608143,-0.0616704,-0.0613139,-0.0115814,-0.00874255,-0.00392339,0.000379375,-0.0116588,0.00500791,0.00647658,0.00534071,0.00118174,-0.00706644,-0.0174636,-0.0231714,-0.019608,-0.0122227,nan,nan,nan,nan,nan,nan,nan,0.138178,0.133738,0.126751,0.12034,0.114492,0.0883413,0.0883413,0.0883413,0.0883413,0.0883413,0.0883413,0.0883413,0.0722613,0.0801252,0.114887,0.123362,0.116564,0.0883413,0.102189,0.0883413,0.091287,0.0861572,0.0883413,0.0758412,0.0383412,0.0883413,0.049075,0.0363812,0.02088,0.00513363,-0.00662205,nan,nan,nan,1.13935,1.08394,1.00429,0.923277,0.852907,0.589478,0.55204,0.427472,0.331675,0.307091,0.288341,0.147348,0.0322105,-0.0440954,-0.0616588,-0.0741588,-0.111659,-0.161659,-0.161659,-0.161659,-0.186659,-0.211659,-0.197373,-0.211659,-0.19453,-0.211659,-0.196134,-0.203325,-0.203325,-0.211659,-0.211659,-0.261659,-0.261659,-0.261659,-0.249159,-0.25509,-0.261659,-0.261659,-0.261659,-0.274159,-0.261659,-0.261659,-0.261659,-0.261659,-0.258276,-0.261659,-0.261659,-0.278325,-0.278325,-0.261659,-0.287793,-0.29023,-0.311659,-0.287099,-0.290763,-0.295118,-0.299517,-0.305481,-0.326241,-0.360842,-0.362415,-0.361689,-0.361659,nan,nan,nan,nan,nan,nan,nan,nan,nan,nan,nan,nan,nan,nan,nan,nan,nan,nan,nan,nan,nan,nan,nan,nan,nan,nan,nan,nan,nan,nan,nan,nan,nan,nan,nan,nan,nan,nan,nan,nan,nan,nan,nan,nan,nan,nan,nan,nan,nan,nan,nan,nan,nan,nan,nan,nan,nan,nan,nan,nan,nan,nan,nan,nan,nan,nan,nan,nan,nan,nan,nan,nan,nan,nan,nan,nan,nan,nan,nan,nan,nan,nan,nan,nan,nan,nan,nan,nan,nan,nan,nan,nan,nan,nan,nan,nan,nan,nan,nan,nan,nan,nan,nan,nan,nan,nan,nan,nan,nan,nan,nan,nan,nan,nan,nan,nan,nan,nan,nan,nan,nan,nan,nan
