0.416795,0.397356,0.371131,0.363791,0.361023,0.369093,0.369093,0.369093,0.359093,0.319093,0.319093,0.319093,0.319093,0.319093,0.315378,0.319093,0.319093,0.319093,0.319093,0.294093,0.144093,0.269093,0.269093,0.269093,0.269093,0.246365,0.185759,0.144093,0.169093,0.176315,0.189078,0.219093,0.212831,0.215229,0.212089,0.20056,0.186719,0.239093,0.144093,0.169093,0.181763,0.194093,0.185759,0.219093,0.169093,0.194828,0.191757,0.194,0.202034,0.211496,0.218991,0.224117,0.219093,0.235759,0.24644,0.251834,0.269093,0.252426,0.219093,0.269093,0.26195,0.239093,0.269093,0.254807,0.269093,0.269093,0.256593,0.219093,0.219093,0.213537,0.185759,0.219093,0.219093,0.219093,0.219093,0.21195,0.219093,0.219093,0.219093,0.219093,0.21195,0.219093,0.219093,0.219093,0.219093,0.219093,0.219093,0.219093,0.219093,0.219093,0.219093,0.219093,0.219093,0.219093,0.219093,0.244093,0.219093,0.219093,0.231593,0.244093,0.219093,0.229093,0.244093,0.227426,0.262843,0.269093,0.269093,0.269093,0.269093,0.269093,0.269093,0.269093,0.269093,0.269093,0.269093,0.269093,0.269093,0.269093,0.269093,0.269093,0.269093,0.444093,0.587843,0.262682,0.356593,0.704807,0.151093,0.0336147,-0.0530287,-0.0868857,-0.0931729,-0.0966485,-0.0992784,-0.0994041,-0.0961413,-0.0906323,-0.0855099,-0.0824664,-0.0813208,-0.0810927,-0.0810986,-0.0810956,-0.0810464,-0.0809786,-0.0809295,-0.0809105,-0.0809073,-0.0809073,-0.0809073,-0.0809073,-0.0809073,-0.0809073,-0.0809073,-0.0809073,-0.0809073,-0.0809073,-0.0809073,-0.0809073,-0.0809073,-0.0809073,-0.0809073,-0.0809073,-0.0809073,-0.0809073,-0.0809073,-0.0809073,-0.0809073,-0.0809073,-0.0809073,-0.0809073,-0.0809073,-0.0809073,-0.0809073,-0.0789448,-0.0772676,-0.0755818,-0.0744164,-0.0742633,-0.0759974,nan,nan,nan,nan,nan,nan,nan,nan,nan,nan,nan,nan,nan,nan,nan,nan,nan,nan,nan,nan,nan,nan,nan,nan,nan,nan,nan,nan,nan,nan,nan,nan,nan,nan,nan,nan,nan,nan,nan,nan,nan,nan,nan,nan,nan,nan,nan,nan,nan,nan,nan,nan,nan,nan,nan,nan,nan,nan,nan,nan,nan,nan,nan,nan,nan,nan,nan,nan,nan,nan,nan,nan,nan,nan,nan,nan,nan,nan,nan,nan,nan,nan,nan,nan,nan,nan,nan,nan,nan,nan,nan,nan,nan,nan,nan,nan,nan,nan,nan,nan,nan,nan,nan,nan,nan,nan,nan,nan,nan,nan,nan,nan,nan,nan,nan,nan,nan,nan,nan,nan,nan
0.408752,0.375756,0.364184,0.361134,0.369093,0.369093,0.349093,0.331593,0.319093,0.319093,0.319093,0.319093,0.310759,0.319093,0.319093,0.305364,0.319093,0.310759,0.319093,0.269093,0.269093,0.269093,0.269093,0.269093,0.319093,0.209718,0.187843,0.119093,0.169093,0.169093,0.180084,0.219093,0.202384,0.204083,0.194263,0.17948,0.169932,0.119093,0.187843,0.161717,0.171609,0.185759,0.219093,0.219093,0.202426,0.169093,0.219093,0.184028,0.191423,0.219093,0.204783,0.219093,0.181593,0.219093,0.235925,0.243603,0.269093,0.269093,0.235759,0.119093,0.269093,0.252426,0.244093,0.239093,0.269093,0.229093,0.212843,0.219093,0.202426,0.199093,0.199093,0.204807,0.209093,0.210759,0.219093,0.219093,0.219093,0.209093,0.210759,0.219093,0.202426,0.202426,0.219093,0.210759,0.209093,0.207982,0.219093,0.219093,0.219093,0.219093,0.219093,0.219093,0.219093,0.219093,0.219093,0.219093,0.219093,0.219093,0.219093,0.224648,0.237843,0.219093,0.229093,0.249093,0.219093,0.269093,0.269093,0.269093,0.269093,0.269093,0.269093,0.269093,0.269093,0.268884,0.269093,0.269093,0.269093,0.269093,0.269093,0.269093,0.269093,0.269093,0.279093,0.158223,-0.0809073,-0.0809073,-0.0809073,-0.0809073,-0.0698829,-0.0842501,-0.0866154,-0.0890921,-0.0923326,-0.0944327,-0.0935235,-0.0894634,-0.0849137,-0.082717,-0.0830222,-0.0844394,-0.0855433,-0.0854455,-0.08414,-0.0825187,-0.0814425,-0.0810126,-0.0809161,-0.0809073,-0.0809073,-0.0809073,-0.0809073,-0.0809073,-0.0809073,-0.0809073,-0.0809073,-0.0809073,-0.0809073,-0.0809073,-0.0809073,-0.0809073,-0.0809073,-0.0809073,-0.0809073,-0.0809073,-0.0809073,-0.0809073,-0.0809073,-0.0809073,-0.0809073,-0.0809073,-0.0809073,-0.0808744,-0.0806416,-0.0799994,-0.0789364,-0.0777868,-0.0771821,-0.0778634,-0.0802115,nan,nan,nan,nan,nan,nan,nan,nan,nan,nan,nan,nan,nan,nan,nan,nan,nan,nan,nan,nan,nan,nan,nan,nan,nan,nan,nan,nan,nan,nan,nan,nan,nan,nan,nan,nan,nan,nan,nan,nan,nan,nan,nan,nan,nan,nan,nan,nan,nan,nan,nan,nan,nan,nan,nan,nan,nan,nan,nan,nan,nan,nan,nan,nan,nan,nan,nan,nan,nan,nan,nan,nan,nan,nan,nan,nan,nan,nan,nan,nan,nan,nan,nan,nan,nan,nan,nan,nan,nan,nan,nan,nan,nan,nan,nan,nan,nan,nan,nan,nan,nan,nan,nan,nan,nan,nan,nan,nan,nan,nan,nan,nan,nan,nan,nan,nan,nan,nan,nan,nan,nan
0.342409,0.346324,0.349837,0.350866,0.369093,0.344093,0.329093,0.319093,0.319093,0.319093,0.319093,0.319093,0.300343,0.302426,0.269093,0.291403,0.319093,0.244093,0.274093,0.219093,0.152426,0.239614,0.244839,0.239042,0.215002,0.19687,0.147664,0.169093,0.134093,0.169093,0.169093,0.219093,0.181514,0.173529,0.161903,0.159358,0.169093,0.169093,0.119093,0.149588,0.15776,0.156593,0.219093,0.180204,0.194093,0.169093,0.168612,0.170878,0.169093,0.219093,0.192843,0.206593,0.219093,0.212628,0.224781,0.219093,0.219093,0.256593,0.240521,0.206593,0.269093,0.269093,0.269093,0.225343,0.249093,0.202426,0.212843,0.224093,0.225343,0.213537,0.209093,0.197664,0.202426,0.194093,0.219093,0.206593,0.219093,0.219093,0.206593,0.197664,0.219093,0.210759,0.202426,0.202426,0.219093,0.206593,0.219093,0.204807,0.219093,0.219093,0.219093,0.219093,0.219093,0.219093,0.219093,0.219093,0.219093,0.219093,0.219093,0.219093,0.219093,0.230204,0.219093,0.231593,0.239093,0.229093,0.252426,0.263537,0.269093,0.269093,0.269093,0.269093,0.269093,0.269093,0.269093,0.269093,0.269093,0.269093,0.269798,0.269093,0.269093,0.269093,0.302426,0.0690927,-0.0934073,-0.0809073,-0.0809073,-0.0809073,-0.0809073,-0.0809073,-0.0809073,-0.0863597,-0.0864488,-0.087055,-0.0874692,-0.0872171,-0.0868695,-0.0881665,-0.091997,-0.0970081,-0.100154,-0.0986284,-0.0926258,-0.0863573,-0.0827219,-0.0813162,-0.0809586,-0.0809073,-0.0809073,-0.0809073,-0.0809073,-0.0809073,-0.0809073,-0.0809073,-0.0809073,-0.0809073,-0.0809073,-0.0809073,-0.0809073,-0.0809073,-0.0809073,-0.0809073,-0.0809073,-0.0809073,-0.0809073,-0.0809073,-0.0809073,-0.0809073,-0.0809073,-0.0809073,-0.0809073,-0.0809065,-0.0808717,-0.0806852,-0.080277,-0.0798309,-0.0798555,-0.0806459,nan,nan,nan,nan,nan,nan,nan,nan,nan,nan,nan,nan,nan,nan,nan,nan,nan,nan,nan,nan,nan,nan,nan,nan,nan,nan,nan,nan,nan,nan,nan,nan,nan,nan,nan,nan,nan,nan,nan,nan,nan,nan,nan,nan,nan,nan,nan,nan,nan,nan,nan,nan,nan,nan,nan,nan,nan,nan,nan,nan,nan,nan,nan,nan,nan,nan,nan,nan,nan,nan,nan,nan,nan,nan,nan,nan,nan,nan,nan,nan,nan,nan,nan,nan,nan,nan,nan,nan,nan,nan,nan,nan,nan,nan,nan,nan,nan,nan,nan,nan,nan,nan,nan,nan,nan,nan,nan,nan,nan,nan,nan,nan,nan,nan,nan,nan,nan,nan,nan,nan,nan,nan
0.309916,0.327936,0.336275,0.339843,0.356593,0.319093,0.319093,0.340521,0.319093,0.319093,0.319093,0.302426,0.277426,0.269093,0.269093,0.276391,0.294093,0.281593,0.26195,0.244093,0.219093,0.226066,0.22621,0.217332,0.195805,0.0729389,0.144093,-0.0559073,0.169093,0.169093,0.169093,0.169093,0.158343,0.147575,0.143348,0.148811,0.150621,0.169093,0.0357594,0.144966,0.149053,0.156593,0.0190927,0.169093,0.169093,0.169093,0.155266,0.169093,0.169093,0.176215,0.185759,0.169093,0.189771,0.199485,0.213446,0.219995,0.219093,0.219093,0.219093,0.219093,0.269093,0.202426,0.227426,0.256593,0.219093,0.231593,0.210759,0.235759,0.225343,0.207982,0.194093,0.206593,0.197664,0.197664,0.202426,0.207982,0.219093,0.197664,0.209093,0.169093,0.219093,0.219093,0.200343,0.219093,0.197664,0.219093,0.202426,0.21195,0.210759,0.219093,0.219093,0.219093,0.219093,0.219093,0.219093,0.219093,0.219093,0.219093,0.219093,0.219093,0.219093,0.219093,0.229093,0.229093,0.219093,0.240521,0.231593,0.239093,0.269093,0.227426,0.252426,0.269093,0.269093,0.269093,0.269093,0.269093,0.269093,0.269093,0.269093,0.269093,0.269093,0.239487,0.269093,-0.0392406,-0.097574,-0.0809073,-0.0809073,-0.0909073,-0.0809073,-0.0809073,-0.0809073,-0.0809073,-0.0809073,-0.0809073,-0.090139,-0.0906679,-0.0912791,-0.0928976,-0.0961869,-0.0999184,-0.101577,-0.0992458,-0.0933703,-0.0871792,-0.0809073,-0.0809073,-0.0809073,-0.0809073,-0.0809073,-0.0809073,-0.0809073,-0.0809073,-0.0809073,-0.0809073,-0.0809073,-0.0809073,-0.0809073,-0.0809073,-0.0809073,-0.0809073,-0.0809073,-0.0809073,-0.0809073,-0.0809073,-0.0809073,-0.0809073,-0.0809073,-0.0809073,-0.0809073,-0.0809073,-0.0809073,-0.0809073,-0.0809073,-0.0809073,-0.0809023,-0.0809073,-0.0809073,-0.0809073,nan,nan,nan,nan,nan,nan,nan,nan,nan,nan,nan,nan,nan,nan,nan,nan,nan,nan,nan,nan,nan,nan,nan,nan,nan,nan,nan,nan,nan,nan,nan,nan,nan,nan,nan,nan,nan,nan,nan,nan,nan,nan,nan,nan,nan,nan,nan,nan,nan,nan,nan,nan,nan,nan,nan,nan,nan,nan,nan,nan,nan,nan,nan,nan,nan,nan,nan,nan,nan,nan,nan,nan,nan,nan,nan,nan,nan,nan,nan,nan,nan,nan,nan,nan,nan,nan,nan,nan,nan,nan,nan,nan,nan,nan,nan,nan,nan,nan,nan,nan,nan,nan,nan,nan,nan,nan,nan,nan,nan,nan,nan,nan,nan,nan,nan,nan,nan,nan,nan,nan,nan,nan
0.298187,0.313952,0.325482,0.319093,0.319093,0.336968,0.335432,0.347664,0.327426,0.319093,0.319093,0.309093,0.233378,0.269093,0.269093,0.269093,0.269093,0.202426,0.244093,0.219093,0.219093,0.219093,0.216875,0.219093,0.219093,0.219093,0.206593,0.169093,0.104807,0.119093,0.169093,0.146785,0.169093,0.119093,0.133501,0.144093,0.169093,0.150249,0.169093,0.169093,0.150998,0.106593,0.169093,0.169093,0.153712,0.169093,-0.0309073,0.169093,0.169093,0.169093,0.169093,0.169093,0.175417,0.183557,0.199929,0.209343,0.194093,0.169093,0.219093,0.219093,0.219093,0.269093,0.252426,0.244093,0.21195,0.219093,0.235759,0.209093,0.219093,0.204807,0.209093,0.200343,0.202426,0.199093,0.206593,0.200343,0.219093,0.190521,0.185759,0.181593,0.206593,0.169093,0.197664,0.197664,0.219093,0.197664,0.219093,0.204093,0.197664,0.219093,0.204807,0.207982,0.219093,0.219093,0.219093,0.219093,0.219093,0.219093,0.219093,0.219093,0.219093,0.219093,0.219093,0.219093,0.219093,0.219093,0.235759,0.235759,0.219093,0.254807,0.231593,0.239093,0.269093,0.269093,0.269093,0.269093,0.269093,0.269093,0.269093,0.269093,0.269093,0.269093,0.269093,0.0390927,-0.120907,-0.125352,-0.130907,-0.130907,-0.130907,-0.114241,-0.0892406,-0.0809073,-0.0809073,-0.0809073,-0.0809073,-0.0809073,-0.0809073,-0.0809073,-0.0809073,-0.105907,-0.114241,-0.114241,-0.105907,-0.0892406,-0.0809073,-0.0809073,-0.0809073,-0.0809073,-0.0809073,-0.0809073,-0.0809073,-0.0809073,-0.0809073,-0.0809073,-0.0809073,-0.0809073,-0.0809073,-0.0809073,-0.0809073,-0.0809073,-0.0809073,-0.0809073,-0.0809073,-0.0809073,-0.0809073,-0.0809073,-0.0809073,-0.0809073,-0.0809073,-0.0809073,-0.0809073,-0.0809073,-0.0809073,-0.0809073,-0.0809073,-0.0809073,-0.0809073,-0.0809073,nan,nan,nan,nan,nan,nan,nan,nan,nan,nan,nan,nan,nan,nan,nan,nan,nan,nan,nan,nan,nan,nan,nan,nan,nan,nan,nan,nan,nan,nan,nan,nan,nan,nan,nan,nan,nan,nan,nan,nan,nan,nan,nan,nan,nan,nan,nan,nan,nan,nan,nan,nan,nan,nan,nan,nan,nan,nan,nan,nan,nan,nan,nan,nan,nan,nan,nan,nan,nan,nan,nan,nan,nan,nan,nan,nan,nan,nan,nan,nan,nan,nan,nan,nan,nan,nan,nan,nan,nan,nan,nan,nan,nan,nan,nan,nan,nan,nan,nan,nan,nan,nan,nan,nan,nan,nan,nan,nan,nan,nan,nan,nan,nan,nan,nan,nan,nan,nan,nan,nan,nan,nan
0.290736,0.302594,0.31625,0.319093,0.330564,0.334558,0.369093,0.362843,0.319093,0.26195,0.319093,0.319093,0.281593,0.279093,0.269093,0.269093,0.269093,0.233378,0.219093,0.219093,0.219093,0.219093,0.219093,0.219093,0.219093,0.169093,0.144093,0.169093,0.164093,0.119093,0.156593,0.119093,0.119093,0.119093,0.119093,0.156593,0.146868,0.154706,0.158248,0.169093,0.169093,0.169093,0.169093,0.0690927,0.169093,0.169093,0.169093,0.169093,0.169093,0.169093,0.129093,0.169093,0.168102,0.174505,0.188669,0.200818,0.219093,0.219093,0.219093,0.219093,0.235759,0.231593,0.269093,0.235759,0.229093,0.219093,0.244093,0.219093,0.219093,0.219093,0.194093,0.202426,0.206593,0.197664,0.169093,0.219093,0.190521,0.185759,0.169093,0.169093,0.185759,0.169093,0.169093,0.181593,0.200343,0.210759,0.202426,0.219093,0.200343,0.200343,0.209093,0.199093,0.207982,0.219093,0.219093,0.219093,0.219093,0.219093,0.219093,0.219093,0.219093,0.219093,0.219093,0.219093,0.219093,0.219093,0.219093,0.231593,0.227426,0.219093,0.235759,0.229093,0.235759,0.235759,0.269093,0.269093,0.269093,0.269093,0.269093,0.269093,0.269093,0.269093,0.269093,0.125759,0.00680666,-0.0637998,-0.130907,-0.130907,-0.130907,-0.130907,-0.130907,-0.130907,-0.130907,-0.117271,-0.119369,-0.111677,-0.111677,-0.110907,-0.109479,-0.10818,-0.100907,-0.0864628,-0.0809073,-0.0809073,-0.0809073,-0.0809073,-0.0809073,-0.0809073,-0.0809073,-0.0809073,-0.0809073,-0.0809073,-0.0809073,-0.0809073,-0.0809073,-0.0809073,-0.0809073,-0.0809073,-0.0811903,-0.0809421,-0.0809076,-0.0809073,-0.0809073,-0.0809073,-0.0809073,-0.0809073,-0.0809073,-0.0809073,-0.0809073,-0.0809073,-0.0809073,-0.0809073,-0.0809073,-0.0809073,-0.0809073,-0.0809073,-0.0809073,-0.0809073,nan,nan,nan,nan,nan,nan,nan,nan,nan,nan,nan,nan,nan,nan,nan,nan,nan,nan,nan,nan,nan,nan,nan,nan,nan,nan,nan,nan,nan,nan,nan,nan,nan,nan,nan,nan,nan,nan,nan,nan,nan,nan,nan,nan,nan,nan,nan,nan,nan,nan,nan,nan,nan,nan,nan,nan,nan,nan,nan,nan,nan,nan,nan,nan,nan,nan,nan,nan,nan,nan,nan,nan,nan,nan,nan,nan,nan,nan,nan,nan,nan,nan,nan,nan,nan,nan,nan,nan,nan,nan,nan,nan,nan,nan,nan,nan,nan,nan,nan,nan,nan,nan,nan,nan,nan,nan,nan,nan,nan,nan,nan,nan,nan,nan,nan,nan,nan,nan,nan,nan,nan,nan
0.294093,0.294721,0.308907,0.31918,0.323932,0.32564,0.324175,0.335759,0.319093,0.319093,0.319093,0.239093,0.313537,0.282729,0.269093,0.256593,0.131593,0.219093,0.219093,0.219093,0.219093,0.182729,0.219093,0.219093,0.219093,0.169093,0.0857594,0.169093,0.125343,0.119093,0.135759,0.119093,0.119093,0.0690927,0.120402,0.119093,0.14446,0.169093,0.169093,0.169093,0.169093,0.169093,0.169093,0.169093,0.169093,0.169093,0.148287,0.119093,0.169093,0.169093,0.169093,0.159093,0.169093,0.169093,0.180681,0.219093,0.194093,0.219093,0.213685,0.224254,0.23349,0.269093,0.249093,0.227426,0.225556,0.219093,0.239093,0.249093,0.209093,0.209093,0.197664,0.199093,0.19687,0.210759,0.181593,0.169093,0.197664,0.185759,0.169093,0.169093,0.169093,0.169093,0.169093,0.169093,0.194093,0.194093,0.190521,0.194093,0.21195,0.199093,0.206593,0.209093,0.202426,0.205456,0.219093,0.219093,0.219093,0.219093,0.219093,0.219093,0.219093,0.219093,0.219093,0.219093,0.219093,0.219093,0.219093,0.219093,0.219093,0.219093,0.219093,0.219093,0.224093,0.231593,0.219093,0.269093,0.269093,0.269093,0.269093,0.269093,0.269093,0.269093,0.269093,0.124356,-0.0809073,-0.0809073,-0.0926017,-0.111326,-0.118759,-0.119108,-0.115668,-0.111978,-0.109099,-0.106812,-0.104845,-0.103144,-0.101529,-0.0996391,-0.0974258,-0.0809073,-0.0809073,-0.0809073,-0.0809073,-0.0809073,-0.0809073,-0.0809073,-0.0809073,-0.0809073,-0.0809073,-0.0809073,-0.0809073,-0.0896432,-0.0923643,-0.093065,-0.0917332,-0.0893632,-0.0866655,-0.0841154,-0.0821798,-0.0811707,-0.0809208,-0.0809073,-0.0809073,-0.0809073,-0.0809073,-0.0809073,-0.0809073,-0.0809073,-0.0809073,-0.0809073,-0.0809073,-0.0809073,-0.0809073,-0.0809073,-0.0809073,-0.0809073,-0.0809073,-0.0809073,-0.0809073,nan,nan,nan,nan,nan,nan,nan,nan,nan,nan,nan,nan,nan,nan,nan,nan,nan,nan,nan,nan,nan,nan,nan,nan,nan,nan,nan,nan,nan,nan,nan,nan,nan,nan,nan,nan,nan,nan,nan,nan,nan,nan,nan,nan,nan,nan,nan,nan,nan,nan,nan,nan,nan,nan,nan,nan,nan,nan,nan,nan,nan,nan,nan,nan,nan,nan,nan,nan,nan,nan,nan,nan,nan,nan,nan,nan,nan,nan,nan,nan,nan,nan,nan,nan,nan,nan,nan,nan,nan,nan,nan,nan,nan,nan,nan,nan,nan,nan,nan,nan,nan,nan,nan,nan,nan,nan,nan,nan,nan,nan,nan,nan,nan,nan,nan,nan,nan,nan,nan,nan,nan
0.269093,0.291586,0.306329,0.314518,0.313133,0.310312,0.319093,0.319093,0.239093,0.319093,0.319093,0.254807,0.290521,0.189093,0.144093,0.219093,0.219093,0.219093,0.219093,0.219093,0.219093,0.219093,0.219093,0.219093,0.219093,0.219093,0.161993,0.119093,0.0840927,0.119093,0.144093,0.117378,0.119093,0.119093,0.117674,0.119093,0.119093,0.169093,0.169093,0.161797,0.119093,0.169093,0.119093,0.169093,0.169093,0.154807,0.119093,0.149492,0.154936,0.119093,0.169093,0.169093,0.169093,0.169093,0.169093,0.182513,0.169093,0.219093,0.206447,0.216769,0.224224,0.223706,0.169093,0.2191,0.219093,0.219093,0.206593,0.219093,0.206593,0.212843,0.194093,0.169093,0.189093,0.194093,0.169093,0.169093,0.185759,0.183378,0.169093,0.169093,0.169093,0.169093,0.169093,0.169093,0.169093,0.185759,0.183378,0.169093,0.185759,0.210759,0.194093,0.185759,0.206593,0.199093,0.202426,0.219093,0.210759,0.219093,0.219093,0.219093,0.219093,0.219093,0.219093,0.219093,0.219093,0.219093,0.219093,0.219093,0.219093,0.219093,0.219093,0.219093,0.219093,0.235759,0.229093,0.239093,0.219093,0.269093,0.269093,0.269093,0.269093,0.269093,0.177093,0.108378,-0.0809073,-0.0809073,-0.0809073,-0.104773,-0.11524,-0.118124,-0.115743,-0.112277,-0.10944,-0.107259,-0.10566,-0.104686,-0.103574,-0.100572,-0.0961485,-0.0922004,-0.0890399,-0.0863716,-0.0844322,-0.0837054,-0.0839747,-0.0844739,-0.0850065,-0.0863998,-0.0896868,-0.0951029,-0.101882,-0.108342,-0.111854,-0.110301,-0.104626,-0.105907,-0.0912029,-0.0861862,-0.0809073,-0.0813852,-0.0809467,-0.0809073,-0.0809073,-0.0809073,-0.0809073,-0.0809073,-0.0809073,-0.0809073,-0.0809073,-0.0809073,-0.0809073,-0.0809073,-0.0809073,-0.0809073,-0.0809073,-0.0809073,-0.0809073,-0.0809073,-0.0809073,nan,nan,nan,nan,nan,nan,nan,nan,nan,nan,nan,nan,nan,nan,nan,nan,nan,nan,nan,nan,nan,nan,nan,nan,nan,nan,nan,nan,nan,nan,nan,nan,nan,nan,nan,nan,nan,nan,nan,nan,nan,nan,nan,nan,nan,nan,nan,nan,nan,nan,nan,nan,nan,nan,nan,nan,nan,nan,nan,nan,nan,nan,nan,nan,nan,nan,nan,nan,nan,nan,nan,nan,nan,nan,nan,nan,nan,nan,nan,nan,nan,nan,nan,nan,nan,nan,nan,nan,nan,nan,nan,nan,nan,nan,nan,nan,nan,nan,nan,nan,nan,nan,nan,nan,nan,nan,nan,nan,nan,nan,nan,nan,nan,nan,nan,nan,nan,nan,nan,nan,nan
0.281492,0.292816,0.307908,0.319093,0.319093,0.319093,0.319093,0.319093,0.319093,0.319093,0.319093,0.31195,0.273638,0.219093,0.219093,0.219093,0.219093,0.219093,0.174648,0.219093,0.182729,0.219093,0.219093,0.210276,0.199192,0.141315,0.163564,0.185759,0.169093,0.119093,0.156593,0.119093,0.0490927,0.119093,0.119093,0.119093,0.140988,0.169093,0.169093,0.169093,0.155328,0.169093,0.169093,0.169093,0.149093,0.169093,0.135759,0.169093,0.169093,0.169093,0.149093,0.169093,0.169093,0.159325,0.169093,0.169188,0.169093,0.18456,0.187016,0.1904,0.197437,0.20237,0.219093,0.219093,0.211937,0.210759,0.219093,0.219093,0.219093,0.212843,0.183378,0.169093,0.169093,0.169093,0.169093,0.169093,0.169093,0.169093,0.169093,0.169093,0.169093,0.169093,0.169093,0.169093,0.169093,0.169093,0.169093,0.169093,0.169093,0.177426,0.202426,0.194093,0.187843,0.202426,0.189093,0.19687,0.219093,0.219093,0.219093,0.219093,0.219093,0.219093,0.219093,0.219093,0.219093,0.219093,0.219093,0.219093,0.219093,0.219093,0.219093,0.219093,0.219093,0.219093,0.219093,0.226236,0.226236,0.219093,0.219093,0.252426,0.248169,0.269093,0.269093,0.0649261,-0.045193,-0.0586851,-0.097574,-0.130907,-0.11503,-0.116604,-0.113318,-0.108384,-0.103076,-0.0987325,-0.0973762,-0.0994883,-0.10419,-0.107231,-0.10345,-0.0978487,-0.0941459,-0.0925491,-0.0937815,-0.097645,-0.101802,-0.104532,-0.106217,-0.108452,-0.11214,-0.116633,-0.120833,-0.130907,-0.130907,-0.130907,-0.130907,-0.0809073,-0.114241,-0.0809073,-0.0809073,-0.0809073,-0.0809073,-0.0809073,-0.0809073,-0.0809073,-0.0809073,-0.0809073,-0.0809073,-0.0809073,-0.0809073,-0.0809073,-0.0809073,-0.0809073,-0.0809073,-0.0809073,-0.0809073,-0.0809073,-0.0809073,-0.0809073,nan,nan,nan,nan,nan,nan,nan,nan,nan,nan,nan,nan,nan,nan,nan,nan,nan,nan,nan,nan,nan,nan,nan,nan,nan,nan,nan,nan,nan,nan,nan,nan,nan,nan,nan,nan,nan,nan,nan,nan,nan,nan,nan,nan,nan,nan,nan,nan,nan,nan,nan,nan,nan,nan,nan,nan,nan,nan,nan,nan,nan,nan,nan,nan,nan,nan,nan,nan,nan,nan,nan,nan,nan,nan,nan,nan,nan,nan,nan,nan,nan,nan,nan,nan,nan,nan,nan,nan,nan,nan,nan,nan,nan,nan,nan,nan,nan,nan,nan,nan,nan,nan,nan,nan,nan,nan,nan,nan,nan,nan,nan,nan,nan,nan,nan,nan,nan,nan,nan,nan,nan,nan
0.280447,0.296401,0.310387,0.305994,0.29143,0.281803,0.0940927,0.319093,0.290253,0.319093,0.319093,0.256593,0.260759,0.139093,0.219093,0.139093,0.219093,0.20481,0.169093,0.219093,0.213537,0.219093,0.211593,0.208507,0.219093,0.219093,0.185759,0.169093,0.100911,0.135759,-0.00590728,0.108244,0.119093,0.112748,0.119093,0.119093,0.169093,0.146915,0.169093,0.169093,0.150369,0.0815927,0.169093,0.144093,0.169093,-0.0809073,0.1322,0.169093,0.149093,0.137843,0.169093,0.169093,0.169093,0.144093,0.119093,0.152186,0.159654,0.164029,0.165673,0.168169,0.175428,0.184894,0.169093,0.202426,0.219093,0.202426,0.219093,0.219093,0.219093,0.194093,0.169093,0.169093,0.169093,0.169093,0.169093,0.169093,0.169093,0.169093,0.169093,0.169093,0.169093,0.169093,0.169093,0.169093,0.169093,0.169093,0.169093,0.169093,0.169093,0.169093,0.169093,0.179093,0.169093,0.169093,0.185771,0.194093,0.191315,0.219093,0.219093,0.212843,0.219093,0.219093,0.219093,0.219093,0.219093,0.219093,0.219093,0.219093,0.219093,0.219093,0.219093,0.219093,0.219093,0.219093,0.219093,0.219093,0.219093,0.219093,0.219093,0.219093,0.248504,0.244093,0.244093,0.107328,0.0413149,-0.0809073,-0.114241,-0.130907,-0.097574,-0.114241,-0.105907,-0.0809073,-0.10686,-0.102948,-0.102263,-0.105401,-0.112182,-0.120646,-0.125255,-0.124634,-0.123001,-0.122478,-0.123102,-0.124262,-0.125295,-0.125976,-0.126407,-0.126721,-0.126941,-0.130907,-0.130907,-0.130907,-0.130907,-0.114241,-0.130907,-0.0809073,-0.0809073,-0.0809073,-0.0809073,-0.0809073,-0.0809073,-0.0809073,-0.0809073,-0.0809073,-0.0809073,-0.0809073,-0.0809073,-0.0809073,-0.0809073,-0.0809073,-0.0809073,-0.0809073,-0.0809073,-0.0809073,-0.0809073,-0.0809073,-0.0809073,-0.0809073,nan,nan,nan,nan,nan,nan,nan,nan,nan,nan,nan,nan,nan,nan,nan,nan,nan,nan,nan,nan,nan,nan,nan,nan,nan,nan,nan,nan,nan,nan,nan,nan,nan,nan,nan,nan,nan,nan,nan,nan,nan,nan,nan,nan,nan,nan,nan,nan,nan,nan,nan,nan,nan,nan,nan,nan,nan,nan,nan,nan,nan,nan,nan,nan,nan,nan,nan,nan,nan,nan,nan,nan,nan,nan,nan,nan,nan,nan,nan,nan,nan,nan,nan,nan,nan,nan,nan,nan,nan,nan,nan,nan,nan,nan,nan,nan,nan,nan,nan,nan,nan,nan,nan,nan,nan,nan,nan,nan,nan,nan,nan,nan,nan,nan,nan,nan,nan,nan,nan,nan,nan,nan
0.262603,0.285327,0.30559,0.297737,0.277048,0.266308,0.268006,0.319093,0.269165,0.259197,0.135759,0.244093,0.219093,0.219093,0.219093,0.219093,0.219093,0.219093,0.219093,0.219093,0.156593,0.202426,0.219093,0.205772,0.192446,0.132729,0.219093,0.0690927,0.152426,0.119093,0.119093,0.119093,0.110309,0.11491,0.119557,0.119093,0.130034,0.119093,0.152426,0.169093,0.169093,0.169093,0.119093,0.119093,0.119093,0.119418,0.132339,0.150851,0.181593,0.169093,0.135759,0.169093,0.129093,0.119093,0.133504,0.1357,0.142602,0.169093,0.169093,0.169093,0.169093,0.176265,0.169093,0.181593,0.194093,0.235759,0.219093,0.219093,0.21195,0.169093,0.169093,0.152426,0.159093,0.159093,0.152426,0.156593,0.169093,0.169093,0.169093,0.169093,0.169093,0.169093,0.169093,0.169093,0.169093,0.169093,0.169093,0.169093,0.169093,0.169093,0.169093,0.169093,0.169093,0.169093,0.169093,0.169093,0.194093,0.194093,0.169093,0.181593,0.189093,0.185759,0.194093,0.190521,0.219093,0.219093,0.219093,0.219093,0.219093,0.219093,0.219093,0.219093,0.219093,0.219093,0.219093,0.219093,0.219093,0.219093,0.219093,0.219093,0.219093,0.224456,0.219093,0.144093,0.0690927,-0.0559073,-0.130907,-0.130907,-0.130907,-0.130907,-0.130907,-0.130907,-0.0809073,-0.0809073,-0.0809073,-0.0809073,-0.119134,-0.125475,-0.129449,-0.130555,-0.130564,-0.130349,-0.129878,-0.129303,-0.130907,-0.130907,-0.130907,-0.130907,-0.130907,-0.130907,-0.130907,-0.130907,-0.130907,-0.130907,-0.114241,-0.0809073,-0.0809073,-0.0809073,-0.0809073,-0.0809073,-0.0809073,-0.0809073,-0.0809073,-0.0809073,-0.0809073,-0.0809073,-0.0809073,-0.0809073,-0.0809073,-0.0809073,-0.0809073,-0.0809073,-0.0809073,-0.0809073,-0.0809073,-0.0809073,-0.0809073,-0.0809073,nan,nan,nan,nan,nan,nan,nan,nan,nan,nan,nan,nan,nan,nan,nan,nan,nan,nan,nan,nan,nan,nan,nan,nan,nan,nan,nan,nan,nan,nan,nan,nan,nan,nan,nan,nan,nan,nan,nan,nan,nan,nan,nan,nan,nan,nan,nan,nan,nan,nan,nan,nan,nan,nan,nan,nan,nan,nan,nan,nan,nan,nan,nan,nan,nan,nan,nan,nan,nan,nan,nan,nan,nan,nan,nan,nan,nan,nan,nan,nan,nan,nan,nan,nan,nan,nan,nan,nan,nan,nan,nan,nan,nan,nan,nan,nan,nan,nan,nan,nan,nan,nan,nan,nan,nan,nan,nan,nan,nan,nan,nan,nan,nan,nan,nan,nan,nan,nan,nan,nan,nan,nan
0.245748,0.251692,0.259638,0.257933,0.246114,0.243667,0.247636,0.248719,0.243476,0.269093,0.219093,0.235759,0.219093,0.219093,0.219093,0.219093,0.219093,0.219093,0.152426,0.119093,0.219093,0.219093,0.219093,0.219093,0.219093,0.205456,0.169093,0.0524261,0.109093,0.112843,0.119093,0.119093,0.119093,0.119093,0.119093,0.119093,0.119093,0.126151,0.0940927,0.0857594,0.134299,0.144093,0.149093,0.119093,0.119093,0.119093,0.137587,0.169093,0.169093,0.139093,0.139093,0.139093,0.124648,0.119093,0.122886,0.124892,0.119093,0.131593,0.154807,0.150722,0.149093,0.169093,0.169093,0.219093,0.194848,0.194093,0.194093,0.210759,0.189093,0.169093,0.169093,0.169093,0.144093,0.169093,0.144093,0.154807,0.144093,0.144093,0.156593,0.152426,0.169093,0.159093,0.169093,0.159093,0.169093,0.169093,0.169093,0.169093,0.169093,0.169093,0.169093,0.169093,0.169093,0.169093,0.169093,0.169093,0.169093,0.169093,0.169093,0.179093,0.185759,0.169093,0.169093,0.185759,0.194093,0.202426,0.219093,0.219093,0.219093,0.219093,0.219093,0.219093,0.219093,0.219093,0.219093,0.219093,0.219093,0.244093,1.09409,0.42254,0.339259,0.219093,0.219093,0.150343,0.0190927,-0.130907,-0.130907,-0.130907,-0.130907,-0.130907,-0.130907,-0.130907,-0.130907,-0.130907,-0.130907,-0.130907,-0.130907,-0.130907,-0.130907,-0.130907,-0.130907,-0.130907,-0.130907,-0.130907,-0.130907,-0.130907,-0.130907,-0.130907,-0.130907,-0.130907,-0.120907,-0.116622,-0.120907,-0.0996573,-0.100907,-0.0892406,-0.0892406,-0.0809073,-0.0809073,-0.0809073,-0.0809073,-0.0809073,-0.0809073,-0.0809862,-0.0811029,-0.0811777,-0.0811382,-0.0810287,-0.0809373,-0.0809084,-0.0809073,-0.0809073,-0.0809073,-0.0809073,-0.0809073,-0.0809073,-0.0809073,-0.0809073,nan,nan,nan,nan,nan,nan,nan,nan,nan,nan,nan,nan,nan,nan,nan,nan,nan,nan,nan,nan,nan,nan,nan,nan,nan,nan,nan,nan,nan,nan,nan,nan,nan,nan,nan,nan,nan,nan,nan,nan,nan,nan,nan,nan,nan,nan,nan,nan,nan,nan,nan,nan,nan,nan,nan,nan,nan,nan,nan,nan,nan,nan,nan,nan,nan,nan,nan,nan,nan,nan,nan,nan,nan,nan,nan,nan,nan,nan,nan,nan,nan,nan,nan,nan,nan,nan,nan,nan,nan,nan,nan,nan,nan,nan,nan,nan,nan,nan,nan,nan,nan,nan,nan,nan,nan,nan,nan,nan,nan,nan,nan,nan,nan,nan,nan,nan,nan,nan,nan,nan,nan,nan
0.248345,0.248794,0.244879,0.236596,0.229696,0.229483,0.232169,0.232492,0.219093,0.219093,0.219093,0.219093,0.219093,0.219093,0.210393,0.219093,0.144093,0.213537,0.129093,0.173247,0.209093,0.219093,0.197567,0.219093,0.179492,0.102426,0.169093,0.169093,0.135759,0.11195,0.101244,0.0690927,0.119093,0.119093,0.119093,0.119093,0.119093,0.119536,0.122186,0.0940927,0.169093,0.169093,0.0440927,0.0976641,0.119093,0.120782,0.139383,0.169093,0.169093,0.169093,0.144093,0.159093,0.119093,0.0990927,0.119093,0.118613,0.119093,0.119093,0.131593,0.139221,0.150437,0.165302,0.176104,0.181747,0.185105,0.181593,0.206593,0.185759,0.169093,0.169093,0.169093,0.169093,0.169093,0.150343,0.156593,0.16195,0.156593,0.119093,0.157982,0.152426,0.169093,0.119093,0.169093,0.156593,0.135759,0.169093,0.169093,0.169093,0.169093,0.169093,0.169093,0.169093,0.169093,0.169093,0.169093,0.169093,0.169093,0.169093,0.169093,0.169093,0.169093,0.187843,0.176236,0.169093,0.169093,0.190521,0.207982,0.219093,0.219093,0.219093,0.219093,0.219093,0.219093,0.219093,0.219093,0.219093,0.219093,1.22699,0.559093,0.219093,0.219093,0.219093,0.219093,0.164093,0.0690927,0.00166289,-0.0805077,-0.119248,-0.128867,-0.130907,-0.130907,-0.130907,-0.130907,-0.130907,-0.130907,-0.130907,-0.130907,-0.130907,-0.130907,-0.130907,-0.130907,-0.130907,-0.130907,-0.125907,-0.118407,-0.118407,-0.121816,-0.123764,-0.119796,-0.112157,-0.109479,-0.105907,-0.0909073,-0.0934073,-0.0809073,-0.0809073,-0.0809073,-0.0809073,-0.0809073,-0.0842193,-0.0833222,-0.082521,-0.0822188,-0.0832661,-0.0855401,-0.0870523,-0.0861578,-0.0837208,-0.0817796,-0.0810245,-0.0809084,-0.0809073,-0.0809073,-0.0809073,-0.0809073,-0.0809073,-0.0809073,-0.0809073,nan,nan,nan,nan,nan,nan,nan,nan,nan,nan,nan,nan,nan,nan,nan,nan,nan,nan,nan,nan,nan,nan,nan,nan,nan,nan,nan,nan,nan,nan,nan,nan,nan,nan,nan,nan,nan,nan,nan,nan,nan,nan,nan,nan,nan,nan,nan,nan,nan,nan,nan,nan,nan,nan,nan,nan,nan,nan,nan,nan,nan,nan,nan,nan,nan,nan,nan,nan,nan,nan,nan,nan,nan,nan,nan,nan,nan,nan,nan,nan,nan,nan,nan,nan,nan,nan,nan,nan,nan,nan,nan,nan,nan,nan,nan,nan,nan,nan,nan,nan,nan,nan,nan,nan,nan,nan,nan,nan,nan,nan,nan,nan,nan,nan,nan,nan,nan,nan,nan,nan,nan,nan
0.235759,0.24197,0.235296,0.229756,0.22723,0.226998,0.244093,0.219093,0.219093,0.219093,0.119093,0.239093,0.269093,0.24217,0.196964,0.219093,0.194093,0.109093,0.119093,0.169093,0.169093,0.169093,0.185824,0.169093,0.169093,0.183378,0.169093,0.169093,0.0690927,0.0440927,0.0896938,0.0943249,0.0940927,0.119093,0.119093,0.119093,0.119093,0.117257,0.117535,0.118663,0.169093,0.0190927,0.119093,0.119093,0.119093,0.119093,0.134431,0.169093,0.169093,0.131593,0.169093,0.112843,0.119093,0.104807,0.119093,0.113711,0.117197,0.119093,0.119093,0.126739,0.136899,0.155185,0.169261,0.169093,0.169093,0.169093,0.169093,0.169093,0.169093,0.169093,0.169093,0.169093,0.169093,0.169093,0.156593,0.157982,0.159093,0.149093,0.139093,0.16195,0.144093,0.169093,0.135759,0.144093,0.156593,0.149093,0.169093,0.169093,0.169093,0.169093,0.169093,0.169093,0.169093,0.169093,0.169093,0.169093,0.169093,0.169093,0.169093,0.169093,0.169093,0.169093,0.189093,0.194093,0.175343,0.185759,0.199093,0.219093,0.219093,0.219093,0.219093,0.219093,0.219093,0.219093,0.219093,0.219093,0.219093,1.32427,1.2364,0.556593,0.219093,0.219093,0.549093,0.160002,-0.0559073,0.0212101,-0.0806393,-0.122011,-0.130217,-0.130736,-0.130421,-0.129646,-0.12858,-0.12777,-0.127691,-0.128409,-0.129579,-0.130517,-0.130864,-0.130907,-0.130907,-0.130907,-0.130907,-0.130907,-0.130907,-0.130907,-0.130907,-0.130907,-0.130907,-0.130907,-0.130907,-0.118407,-0.112053,-0.107091,-0.102506,-0.0997199,-0.0988873,-0.0988131,-0.0987304,-0.098323,-0.0966012,-0.0936313,-0.092656,-0.0966675,-0.103234,-0.10449,-0.0973359,-0.088427,-0.0832632,-0.0813675,-0.080941,-0.0809073,-0.0809073,-0.0809073,-0.0809073,-0.0809073,-0.0809073,-0.0809073,-0.0809073,nan,nan,nan,nan,nan,nan,nan,nan,nan,nan,nan,nan,nan,nan,nan,nan,nan,nan,nan,nan,nan,nan,nan,nan,nan,nan,nan,nan,nan,nan,nan,nan,nan,nan,nan,nan,nan,nan,nan,nan,nan,nan,nan,nan,nan,nan,nan,nan,nan,nan,nan,nan,nan,nan,nan,nan,nan,nan,nan,nan,nan,nan,nan,nan,nan,nan,nan,nan,nan,nan,nan,nan,nan,nan,nan,nan,nan,nan,nan,nan,nan,nan,nan,nan,nan,nan,nan,nan,nan,nan,nan,nan,nan,nan,nan,nan,nan,nan,nan,nan,nan,nan,nan,nan,nan,nan,nan,nan,nan,nan,nan,nan,nan,nan,nan,nan,nan,nan,nan,nan,nan
0.252426,0.269093,0.269093,0.219093,0.219093,0.219093,0.219093,0.231593,0.219093,0.269093,0.287843,0.319093,0.229093,0.240521,0.185759,0.162934,0.0490927,0.169093,0.169093,0.169093,0.169093,0.169093,0.172969,0.169202,0.169093,0.169093,0.0940927,0.119093,0.119093,0.0940927,0.0690927,0.0836489,0.0690927,0.119093,0.119093,0.119093,0.119093,0.119093,0.112717,0.119093,0.119093,0.119093,0.0524261,0.0565927,0.0690927,0.119093,0.127141,0.119093,0.169093,0.147484,0.131593,0.144093,0.125343,0.102426,0.106593,0.119093,0.119093,0.119093,0.119093,0.119093,0.129764,0.147456,0.163138,0.169093,0.169093,0.169093,0.169093,0.202426,0.176236,0.169093,0.169093,0.169093,0.169093,0.169093,0.169093,0.154807,0.156593,0.147664,0.144093,0.119093,0.156593,0.149093,0.169093,0.139093,0.144093,0.169093,0.140521,0.169093,0.169093,0.169093,0.169093,0.169093,0.169093,0.169093,0.169093,0.169093,0.169093,0.169093,0.169093,0.169093,0.169093,0.169093,0.169093,0.179093,0.185759,0.181593,0.177426,0.199093,0.219093,0.219093,0.219093,0.219093,0.219093,0.219093,0.219093,0.219093,0.219093,0.219093,0.939926,0.589093,1.25153,1.34064,1.30221,0.875696,-0.097574,-0.130907,-0.130907,-0.130907,-0.130658,-0.130906,-0.130889,-0.130805,-0.130646,-0.130504,-0.130451,-0.13052,-0.130711,-0.130869,-0.130906,-0.130905,-0.130863,-0.130652,-0.130089,-0.129218,-0.128441,-0.128128,-0.128201,-0.128175,-0.127561,-0.126191,-0.124316,-0.122493,-0.121065,-0.119801,-0.118601,-0.117949,-0.11806,-0.130907,-0.11929,-0.118438,-0.114042,-0.10798,-0.105127,-0.107221,-0.11029,-0.108335,-0.100053,-0.0905067,-0.0809073,-0.0809073,-0.0810205,-0.0809073,-0.0809073,-0.0809073,-0.0809081,-0.0809073,-0.0809073,-0.0809073,-0.0809073,nan,nan,nan,nan,nan,nan,nan,nan,nan,nan,nan,nan,nan,nan,nan,nan,nan,nan,nan,nan,nan,nan,nan,nan,nan,nan,nan,nan,nan,nan,nan,nan,nan,nan,nan,nan,nan,nan,nan,nan,nan,nan,nan,nan,nan,nan,nan,nan,nan,nan,nan,nan,nan,nan,nan,nan,nan,nan,nan,nan,nan,nan,nan,nan,nan,nan,nan,nan,nan,nan,nan,nan,nan,nan,nan,nan,nan,nan,nan,nan,nan,nan,nan,nan,nan,nan,nan,nan,nan,nan,nan,nan,nan,nan,nan,nan,nan,nan,nan,nan,nan,nan,nan,nan,nan,nan,nan,nan,nan,nan,nan,nan,nan,nan,nan,nan,nan,nan,nan,nan,nan
0.210651,0.198378,0.269093,0.244093,0.227426,0.219093,0.219093,0.244093,0.211342,0.319093,-0.0809073,-0.105907,0.119093,0.0490927,0.0857594,0.146665,0.169093,0.129406,-0.0309073,0.169093,0.169093,0.157514,0.169093,0.169093,0.14734,0.169093,0.131593,0.119093,0.119093,-0.0559073,0.0890927,0.0744472,0.0916398,0.108447,0.119093,0.119093,0.119093,0.119093,0.106967,0.119093,0.119093,0.0976641,0.119093,0.119093,0.119093,0.119093,0.119093,0.119093,0.140892,0.141419,0.169093,0.119093,0.119093,0.0753427,0.0940927,0.0993372,0.119093,0.0690927,0.119093,0.119093,0.119093,0.169093,0.158889,0.169093,0.185759,0.169093,0.169093,0.169093,0.169093,0.169093,0.169093,0.169093,0.169093,0.169093,0.169093,0.169093,0.147664,0.156593,0.152426,0.135759,0.144093,0.169093,0.144093,0.169093,0.135759,0.169093,0.16195,0.169093,0.169093,0.169093,0.169093,0.169093,0.169093,0.169093,0.169093,0.169093,0.169093,0.169093,0.169093,0.169093,0.169093,0.169093,0.169093,0.174648,0.190521,0.181593,0.187843,0.169093,0.189093,0.219093,0.210759,0.204807,0.21195,0.219093,0.219093,0.219093,0.219093,0.412233,0.781593,0.494093,1.17418,1.17299,1.05697,0.823722,-0.0909073,-0.130907,-0.130907,-0.130907,-0.130907,-0.130907,-0.130907,-0.130907,-0.130907,-0.130907,-0.130907,-0.130906,-0.130907,-0.130907,-0.130907,-0.130907,-0.130895,-0.130803,-0.130526,-0.130132,-0.129866,-0.129852,-0.130002,-0.1301,-0.129976,-0.129591,-0.129091,-0.12877,-0.130907,-0.130907,-0.130907,-0.130907,-0.130907,-0.130907,-0.128318,-0.130907,-0.130907,-0.0809073,-0.0809073,-0.0809073,-0.130907,-0.130907,-0.114241,-0.0809073,-0.0809073,-0.0809073,-0.0809073,-0.0809073,-0.0809073,-0.0810063,-0.0811537,-0.0812813,-0.0812287,-0.0809688,nan,nan,nan,nan,nan,nan,nan,nan,nan,nan,nan,nan,nan,nan,nan,nan,nan,nan,nan,nan,nan,nan,nan,nan,nan,nan,nan,nan,nan,nan,nan,nan,nan,nan,nan,nan,nan,nan,nan,nan,nan,nan,nan,nan,nan,nan,nan,nan,nan,nan,nan,nan,nan,nan,nan,nan,nan,nan,nan,nan,nan,nan,nan,nan,nan,nan,nan,nan,nan,nan,nan,nan,nan,nan,nan,nan,nan,nan,nan,nan,nan,nan,nan,nan,nan,nan,nan,nan,nan,nan,nan,nan,nan,nan,nan,nan,nan,nan,nan,nan,nan,nan,nan,nan,nan,nan,nan,nan,nan,nan,nan,nan,nan,nan,nan,nan,nan,nan,nan,nan,nan,nan
0.185333,0.175609,-0.230907,0.194194,0.219093,0.269093,0.217841,0.208454,0.192842,0.168738,0.144676,0.169093,0.169093,0.169093,0.169093,0.137688,0.129311,0.123384,0.149093,0.119093,0.169093,0.144001,0.144591,0.169093,0.169093,0.119093,0.00909271,0.119093,0.100343,0.0590927,0.0790927,0.0686225,0.08192,0.102612,0.11445,0.119093,0.119093,0.119093,0.0565927,0.0440927,0.119093,0.119093,0.119093,0.119093,0.119093,0.119093,0.115049,0.122096,0.130657,0.130427,0.122405,0.144093,0.127426,0.106593,0.0690927,0.0891634,0.09233,0.0690927,0.102426,0.119093,0.13107,0.119093,0.169093,0.169093,0.169093,0.169093,0.169093,0.167555,0.169093,0.156593,0.144093,0.169093,0.160759,0.169093,0.119093,0.169093,0.169093,0.144093,0.154093,0.156593,0.139093,0.139093,0.144093,0.150343,0.160759,0.139093,0.156593,0.169093,0.169093,0.169093,0.169093,0.169093,0.169093,0.169093,0.169093,0.169093,0.169093,0.169093,0.169093,0.169093,0.169093,0.169093,0.169093,0.169093,0.169093,0.190521,0.180204,0.185759,0.183378,0.185759,0.169093,0.194093,0.190521,0.194093,0.190521,0.204807,0.210759,0.219093,0.219093,0.219093,0.219093,0.344093,0.910002,0.105759,-0.118407,-0.130907,-0.130907,-0.130907,-0.130907,-0.130907,-0.130907,-0.130907,-0.130907,-0.130907,-0.130907,-0.130907,-0.130907,-0.130907,-0.130907,-0.130907,-0.130907,-0.130903,-0.130884,-0.130853,-0.130835,-0.130839,-0.130854,-0.130862,-0.130907,-0.130907,-0.130907,-0.130907,-0.130907,-0.130907,-0.130907,-0.130763,-0.130907,-0.130907,-0.130907,-0.130907,-0.130907,-0.130907,-0.130907,-0.130907,-0.118407,-0.0809073,-0.0809073,-0.0934073,-0.0809073,-0.0809073,-0.0814873,-0.0812745,-0.0818622,-0.0834208,-0.0862786,-0.090558,-0.0960729,-0.101975,-0.105909,nan,nan,nan,nan,nan,nan,nan,nan,nan,nan,nan,nan,nan,nan,nan,nan,nan,nan,nan,nan,nan,nan,nan,nan,nan,nan,nan,nan,nan,nan,nan,nan,nan,nan,nan,nan,nan,nan,nan,nan,nan,nan,nan,nan,nan,nan,nan,nan,nan,nan,nan,nan,nan,nan,nan,nan,nan,nan,nan,nan,nan,nan,nan,nan,nan,nan,nan,nan,nan,nan,nan,nan,nan,nan,nan,nan,nan,nan,nan,nan,nan,nan,nan,nan,nan,nan,nan,nan,nan,nan,nan,nan,nan,nan,nan,nan,nan,nan,nan,nan,nan,nan,nan,nan,nan,nan,nan,nan,nan,nan,nan,nan,nan,nan,nan,nan,nan,nan,nan,nan,nan
0.188488,0.178458,0.269093,0.269093,0.20575,0.2108,0.201819,0.185759,0.169093,0.169093,0.13658,0.169093,0.0690927,0.131593,0.169093,0.132839,0.126923,0.119093,0.119093,0.127949,0.135759,0.119093,0.119093,0.119093,0.112585,0.119093,0.119093,0.119093,0.119093,-0.00590729,0.0890927,0.0690927,0.0734152,0.0907071,0.109378,0.119093,0.119093,0.0690927,0.119093,0.103505,0.102999,0.0890927,0.0890927,0.0976641,0.0940927,0.119093,0.119093,0.110635,0.116059,0.114948,0.110898,0.0190927,0.125343,0.0878427,0.0690927,0.0690927,0.0835991,0.0953396,0.109272,0.119093,0.119093,0.169093,0.148443,0.160759,0.169093,0.158755,0.169093,0.169093,0.169093,0.144093,0.119093,0.149093,0.119093,0.144093,0.133378,0.144093,0.169093,0.169093,0.152426,0.160759,0.156593,0.131593,0.135759,0.156593,0.156593,0.169093,0.144093,0.144093,0.159093,0.169093,0.169093,0.169093,0.169093,0.169093,0.169093,0.169093,0.169093,0.169093,0.169093,0.169093,0.169093,0.169093,0.169093,0.169093,0.169093,0.169093,0.181593,0.190521,0.179093,0.187843,0.175343,0.169093,0.181593,0.177426,0.219093,0.206593,0.194093,0.199093,0.194093,0.219093,0.350129,0.219093,0.219093,0.0740927,-0.130907,-0.130907,-0.130907,-0.130907,-0.130907,-0.130907,-0.130907,-0.130907,-0.130907,-0.130907,-0.130907,-0.130907,-0.130907,-0.130907,-0.130907,-0.130907,-0.130907,-0.130907,-0.130907,-0.130907,-0.130907,-0.130907,-0.130907,-0.130907,-0.130907,-0.130907,-0.130907,-0.130907,-0.130907,-0.130907,-0.130907,-0.130907,-0.130907,-0.130907,-0.130907,-0.130907,-0.130907,-0.0809073,-0.114241,-0.130907,-0.118407,-0.130907,-0.130907,-0.0991174,-0.0917782,-0.087257,-0.0861072,-0.0884335,-0.0946147,-0.103847,-0.114101,-0.122995,-0.128694,-0.13077,-0.130907,nan,nan,nan,nan,nan,nan,nan,nan,nan,nan,nan,nan,nan,nan,nan,nan,nan,nan,nan,nan,nan,nan,nan,nan,nan,nan,nan,nan,nan,nan,nan,nan,nan,nan,nan,nan,nan,nan,nan,nan,nan,nan,nan,nan,nan,nan,nan,nan,nan,nan,nan,nan,nan,nan,nan,nan,nan,nan,nan,nan,nan,nan,nan,nan,nan,nan,nan,nan,nan,nan,nan,nan,nan,nan,nan,nan,nan,nan,nan,nan,nan,nan,nan,nan,nan,nan,nan,nan,nan,nan,nan,nan,nan,nan,nan,nan,nan,nan,nan,nan,nan,nan,nan,nan,nan,nan,nan,nan,nan,nan,nan,nan,nan,nan,nan,nan,nan,nan,nan,nan,nan
0.219093,0.219093,0.192361,0.194373,0.198846,0.196481,0.194093,0.179093,0.169093,0.144093,0.144093,0.119093,0.119093,0.119093,0.119093,0.125899,0.119093,0.12122,0.119093,0.123526,0.119093,0.119093,0.119093,0.103506,0.119093,-0.0309073,0.0440927,0.119093,0.0815927,0.0440927,0.0690927,0.0690927,0.0690927,0.0802731,0.100978,0.1123,0.112239,0.119093,0.119093,0.119093,0.100855,0.119093,0.119093,0.0940927,0.0690927,0.0901929,0.0940927,0.095219,0.0992649,0.105051,0.106053,0.119093,0.119093,0.100911,0.0690927,0.0690927,0.0690927,0.0928257,0.119093,0.12114,0.144093,0.169093,0.119093,0.119093,0.159093,0.119093,0.154893,0.185759,0.152426,0.159093,0.119093,0.119093,0.119093,0.119093,0.144093,0.152426,0.144093,0.169093,0.135759,0.144093,0.16195,0.144093,0.156593,0.144093,0.144093,0.14687,0.160759,0.144093,0.152426,0.169093,0.147664,0.156593,0.169093,0.169093,0.169093,0.169093,0.169093,0.169093,0.169093,0.169093,0.169093,0.169093,0.169093,0.169093,0.169093,0.169093,0.169093,0.169093,0.194093,0.189093,0.194093,0.190521,0.177426,0.169093,0.177426,0.194093,0.202426,0.200298,0.212343,0.219093,0.219093,0.219093,0.219093,0.0405213,-0.130907,-0.0867298,-0.122004,-0.130907,-0.130907,-0.130907,-0.130907,-0.130907,-0.130907,-0.130907,-0.130907,-0.130907,-0.130907,-0.130907,-0.130907,-0.130907,-0.130907,-0.130907,-0.130907,-0.130907,-0.130907,-0.130907,-0.130907,-0.130907,-0.130907,-0.130907,-0.130907,-0.130907,-0.130907,-0.130907,-0.130907,-0.130907,-0.130907,-0.130907,-0.130907,-0.130907,-0.130907,-0.130907,-0.130907,-0.130907,-0.121636,-0.118439,-0.113874,-0.109669,-0.107201,-0.107595,-0.111511,-0.117939,-0.123753,-0.127442,-0.129576,-0.130614,-0.130907,-0.130907,-0.130907,nan,nan,nan,nan,nan,nan,nan,nan,nan,nan,nan,nan,nan,nan,nan,nan,nan,nan,nan,nan,nan,nan,nan,nan,nan,nan,nan,nan,nan,nan,nan,nan,nan,nan,nan,nan,nan,nan,nan,nan,nan,nan,nan,nan,nan,nan,nan,nan,nan,nan,nan,nan,nan,nan,nan,nan,nan,nan,nan,nan,nan,nan,nan,nan,nan,nan,nan,nan,nan,nan,nan,nan,nan,nan,nan,nan,nan,nan,nan,nan,nan,nan,nan,nan,nan,nan,nan,nan,nan,nan,nan,nan,nan,nan,nan,nan,nan,nan,nan,nan,nan,nan,nan,nan,nan,nan,nan,nan,nan,nan,nan,nan,nan,nan,nan,nan,nan,nan,nan,nan,nan
0.219093,0.20649,0.219093,0.169093,0.189773,0.169093,0.175971,0.169093,0.169093,0.119093,0.119093,0.119093,0.119093,0.119093,0.109912,0.114644,0.119093,0.119093,0.120356,0.118894,0.113288,0.119093,0.0857594,0.0860546,0.119093,0.0766082,0.119093,0.0857594,0.0690927,-0.0309073,0.0690927,0.0690927,0.0690927,0.0772075,0.0942952,0.111678,0.11443,0.119093,0.119093,0.119093,0.119093,0.0690927,0.052426,0.0690927,0.0690927,0.0690927,0.0792955,0.0804312,0.0861406,0.10332,0.106507,0.119093,0.119093,0.100343,0.0690927,0.0690927,0.0773294,0.0911829,0.119093,0.116157,0.119093,0.127859,0.131505,0.119093,0.159093,0.119093,0.129093,0.169093,0.192426,0.119093,0.130246,0.119093,0.119093,0.119093,0.135759,0.144093,0.119093,0.144093,0.159093,0.156593,0.140521,0.154807,0.139093,0.152426,0.144093,0.144093,0.144093,0.139093,0.149093,0.156593,0.169093,0.152426,0.169093,0.169093,0.169093,0.169093,0.169093,0.169093,0.169093,0.169093,0.169093,0.169093,0.169093,0.169093,0.169093,0.169093,0.169093,0.169093,0.169093,0.169093,0.169093,0.169093,0.194093,0.169093,0.169093,0.169093,0.169093,0.169093,0.169093,0.194093,0.219093,0.219093,0.219093,0.0926221,-0.130907,-0.130907,-0.130907,-0.130122,-0.130889,-0.130907,-0.130907,-0.130907,-0.130907,-0.130907,-0.130907,-0.130907,-0.130907,-0.130907,-0.130907,-0.130907,-0.130907,-0.130907,-0.130907,-0.130907,-0.130907,-0.130907,-0.130907,-0.130907,-0.130907,-0.130907,-0.130907,-0.130907,-0.130907,-0.130907,-0.130907,-0.130907,-0.130907,-0.130907,-0.130907,-0.130014,-0.127646,-0.125799,-0.125627,-0.126285,-0.126274,-0.125403,-0.12516,-0.125809,-0.126591,-0.127591,-0.128901,-0.130024,-0.130575,-0.130779,-0.130907,-0.130906,-0.130907,-0.130907,-0.130907,nan,nan,nan,nan,nan,nan,nan,nan,nan,nan,nan,nan,nan,nan,nan,nan,nan,nan,nan,nan,nan,nan,nan,nan,nan,nan,nan,nan,nan,nan,nan,nan,nan,nan,nan,nan,nan,nan,nan,nan,nan,nan,nan,nan,nan,nan,nan,nan,nan,nan,nan,nan,nan,nan,nan,nan,nan,nan,nan,nan,nan,nan,nan,nan,nan,nan,nan,nan,nan,nan,nan,nan,nan,nan,nan,nan,nan,nan,nan,nan,nan,nan,nan,nan,nan,nan,nan,nan,nan,nan,nan,nan,nan,nan,nan,nan,nan,nan,nan,nan,nan,nan,nan,nan,nan,nan,nan,nan,nan,nan,nan,nan,nan,nan,nan,nan,nan,nan,nan,nan,nan
0.199953,0.193712,0.187701,0.169093,0.178575,0.17518,0.169792,0.155977,0.13517,0.119093,0.119093,0.0890927,0.0690927,0.0690927,0.0913244,0.0984686,0.109564,0.11684,0.118561,0.113825,0.105236,0.119093,0.0315927,0.0741576,-0.0809073,0.119093,0.119093,-0.0142406,0.0690927,0.0330581,0.0378739,0.0690927,0.066617,0.079168,0.0944071,0.112639,0.115627,0.112388,0.119093,0.119093,0.0690927,0.0690927,0.0690927,0.0690927,0.0690927,0.0690927,0.0690927,0.072299,0.0786021,0.100875,0.10546,0.119093,0.0940927,0.0690927,0.0590927,0.0690927,0.0764206,0.0890694,0.0690927,0.119093,0.119093,0.119093,0.119093,0.119093,0.149093,0.144093,0.144093,0.169093,0.144093,0.119093,0.119093,0.119093,0.119093,0.119093,0.119093,0.144093,0.127426,0.144093,0.139093,0.135759,0.159093,0.131593,0.154807,0.144093,0.135759,0.139093,0.131593,0.156593,0.144093,0.152426,0.144093,0.169093,0.169093,0.169093,0.169093,0.169093,0.169093,0.169093,0.169093,0.169093,0.169093,0.169093,0.169093,0.169093,0.169093,0.169093,0.169093,0.169093,0.169093,0.169093,0.169093,0.169093,0.169093,0.199093,0.169093,0.176135,0.179409,0.169093,0.181593,0.169093,0.219093,0.219093,0.219093,0.0476641,-0.130907,-0.130907,-0.130907,-0.130907,-0.130907,-0.130901,-0.130913,-0.130937,-0.13098,-0.131014,-0.131028,-0.131043,-0.131068,-0.131092,-0.131094,-0.13108,-0.131077,-0.131135,-0.131505,-0.13234,-0.133062,-0.132939,-0.132084,-0.131274,-0.130991,-0.131378,-0.132989,-0.136197,-0.140121,-0.14311,-0.144433,-0.144495,-0.143496,-0.14119,-0.137775,-0.134113,-0.131197,-0.129672,-0.129458,-0.129841,-0.130154,-0.130316,-0.130515,-0.130649,-0.130907,-0.130907,-0.130832,-0.130907,-0.130907,-0.130907,-0.130907,-0.130907,-0.130907,-0.130907,-0.130907,nan,nan,nan,nan,nan,nan,nan,nan,nan,nan,nan,nan,nan,nan,nan,nan,nan,nan,nan,nan,nan,nan,nan,nan,nan,nan,nan,nan,nan,nan,nan,nan,nan,nan,nan,nan,nan,nan,nan,nan,nan,nan,nan,nan,nan,nan,nan,nan,nan,nan,nan,nan,nan,nan,nan,nan,nan,nan,nan,nan,nan,nan,nan,nan,nan,nan,nan,nan,nan,nan,nan,nan,nan,nan,nan,nan,nan,nan,nan,nan,nan,nan,nan,nan,nan,nan,nan,nan,nan,nan,nan,nan,nan,nan,nan,nan,nan,nan,nan,nan,nan,nan,nan,nan,nan,nan,nan,nan,nan,nan,nan,nan,nan,nan,nan,nan,nan,nan,nan,nan,nan
0.137898,0.135819,0.137799,0.142587,0.147608,0.1526,0.154452,0.137862,0.110293,0.0881707,0.00242605,0.0753427,0.0671758,0.0690927,0.0690927,0.074473,0.0865683,0.102861,0.113267,0.109158,0.0991206,0.119093,0.0690927,0.0681131,0.119093,0.0646886,0.0690927,0.0690927,0.0690927,-0.230907,0.0306486,0.0690927,0.0632894,0.119093,0.0969625,0.113721,0.112327,0.104727,0.0964841,0.102426,0.0690927,0.0690927,0.0690927,0.0690927,0.0690927,0.0690927,0.0690927,0.0690927,0.0745554,0.096484,0.101201,0.119093,0.0690927,0.0690927,0.0690927,0.0690927,0.076035,0.0870501,0.102426,0.0857594,0.119093,0.119093,0.119093,0.124651,0.119093,0.144093,0.137713,0.119093,0.119093,0.119093,0.119093,0.119093,0.11979,0.119093,0.119093,0.119093,0.144093,0.137843,0.144093,0.144093,0.144093,0.156593,0.137843,0.149093,0.144093,0.156593,0.131593,0.144093,0.169093,0.139093,0.152426,0.144093,0.169093,0.169093,0.169093,0.169093,0.169093,0.169093,0.169093,0.169093,0.169093,0.169093,0.169093,0.169093,0.169093,0.169093,0.169093,0.169093,0.169093,0.169093,0.169093,0.169093,0.169093,0.169093,0.169093,0.169093,0.178636,0.219093,0.199093,0.219093,0.194093,0.219093,0.219093,0.0357594,-0.121816,-0.130907,-0.130907,-0.130907,-0.130907,-0.130907,-0.130907,-0.130907,-0.13156,-0.131965,-0.132356,-0.132862,-0.133526,-0.134062,-0.134266,-0.134366,-0.134684,-0.13575,-0.138709,-0.142807,-0.144668,-0.142517,-0.137658,-0.133285,-0.131744,-0.133254,-0.138039,-0.146146,-0.155533,-0.162693,-0.165944,-0.166079,-0.163688,-0.158154,-0.149699,-0.141205,-0.135571,-0.132722,-0.131426,-0.130907,-0.130884,-0.130893,-0.130907,-0.130907,-0.130907,-0.130907,-0.130907,-0.130907,-0.130907,-0.130907,-0.130907,-0.130907,-0.130907,-0.130907,-0.130907,nan,nan,nan,nan,nan,nan,nan,nan,nan,nan,nan,nan,nan,nan,nan,nan,nan,nan,nan,nan,nan,nan,nan,nan,nan,nan,nan,nan,nan,nan,nan,nan,nan,nan,nan,nan,nan,nan,nan,nan,nan,nan,nan,nan,nan,nan,nan,nan,nan,nan,nan,nan,nan,nan,nan,nan,nan,nan,nan,nan,nan,nan,nan,nan,nan,nan,nan,nan,nan,nan,nan,nan,nan,nan,nan,nan,nan,nan,nan,nan,nan,nan,nan,nan,nan,nan,nan,nan,nan,nan,nan,nan,nan,nan,nan,nan,nan,nan,nan,nan,nan,nan,nan,nan,nan,nan,nan,nan,nan,nan,nan,nan,nan,nan,nan,nan,nan,nan,nan,nan,nan
0.0901856,0.0854478,0.0829065,0.0816549,0.0782204,0.0711538,0.0713743,0.0773461,0.0666576,0.0530038,0.0690927,0.0690927,0.0690927,0.0690927,0.0476216,0.0462497,0.0450124,0.0497574,0.075157,0.101236,0.0932007,0.0812095,0.0702653,0.0690927,0.0690927,0.0690927,0.0486368,0.00909271,0.0690927,0.0690927,0.0690927,0.0390927,0.056337,0.0716686,0.0923655,0.111525,0.100886,0.0906676,0.0839929,0.0690927,0.0690927,0.0690927,0.0390927,0.0690927,0.0690927,0.0690927,0.0690927,0.0640827,0.0695366,0.0913853,0.0954338,0.119093,0.0690927,0.0690927,0.0690927,0.0690927,0.0690927,0.0940927,0.0946854,0.106593,0.0990927,0.0940927,0.119093,0.119093,0.12896,0.13388,0.144093,0.119093,0.119093,0.119093,0.119093,0.119093,0.119093,0.119937,0.119093,0.119093,0.119093,0.135759,0.135759,0.159093,0.144093,0.139093,0.144093,0.119093,0.155456,0.135759,0.144093,0.144093,0.135759,0.169093,0.149093,0.160759,0.139093,0.156593,0.169093,0.169093,0.169093,0.169093,0.169093,0.169093,0.169093,0.169093,0.169093,0.169093,0.169093,0.169093,0.169093,0.169093,0.169093,0.169093,0.169093,0.169093,0.169093,0.169093,0.169093,0.169093,0.169093,0.187205,0.194432,0.189093,0.185759,0.206593,0.206593,0.0315927,-0.0854527,-0.105907,-0.130907,-0.130907,-0.130907,-0.130907,-0.130907,-0.130907,-0.130907,-0.130907,-0.130907,-0.136938,-0.13922,-0.141054,-0.142097,-0.143197,-0.145446,-0.149598,-0.154832,-0.157638,-0.155783,-0.149709,-0.141561,-0.135008,-0.132975,-0.130907,-0.130907,-0.130907,-0.180907,-0.180907,-0.180907,-0.180907,-0.180907,-0.180907,-0.155377,-0.130907,-0.130907,-0.130907,-0.130907,-0.130907,-0.130907,-0.130907,-0.130907,-0.130907,-0.130907,-0.130907,-0.130907,-0.130907,-0.130907,-0.130907,-0.130907,-0.130907,-0.130907,-0.130907,-0.130907,nan,nan,nan,nan,nan,nan,nan,nan,nan,nan,nan,nan,nan,nan,nan,nan,nan,nan,nan,nan,nan,nan,nan,nan,nan,nan,nan,nan,nan,nan,nan,nan,nan,nan,nan,nan,nan,nan,nan,nan,nan,nan,nan,nan,nan,nan,nan,nan,nan,nan,nan,nan,nan,nan,nan,nan,nan,nan,nan,nan,nan,nan,nan,nan,nan,nan,nan,nan,nan,nan,nan,nan,nan,nan,nan,nan,nan,nan,nan,nan,nan,nan,nan,nan,nan,nan,nan,nan,nan,nan,nan,nan,nan,nan,nan,nan,nan,nan,nan,nan,nan,nan,nan,nan,nan,nan,nan,nan,nan,nan,nan,nan,nan,nan,nan,nan,nan,nan,nan,nan,nan
0.0857594,0.0690927,0.0440927,0.0511379,0.0434582,0.0329183,0.0241228,0.0240982,0.0251166,0.0210736,0.0180366,-0.130907,0.0315927,0.0190927,0.0295304,0.0271851,0.0234489,0.0214178,0.02749,0.0741063,0.0813758,0.0699073,0.0607436,0.0690927,0.0190927,0.0690927,0.0386083,0.0440927,-0.130907,0.0690927,0.0690927,0.0440927,0.0435559,0.0514645,0.0698273,0.0989012,0.082927,0.0770161,0.0744474,0.0690927,0.0690927,0.0690927,0.0190927,0.0690927,0.0690927,0.0690927,0.0690927,0.0542768,0.0582866,0.0824722,0.0886922,0.0817245,0.0690927,0.0690927,0.0690927,0.0690927,0.0690927,0.0940927,0.0905908,0.119093,0.0940927,0.102681,0.119093,0.119093,0.127709,0.144093,0.125343,0.139093,0.135759,0.119093,0.119093,0.119093,0.119093,0.119093,0.11996,0.119093,0.119093,0.119093,0.144093,0.131593,0.119093,0.119093,0.135759,0.156593,0.119093,0.156593,0.149093,0.144093,0.144093,0.140521,0.119093,0.152426,0.147664,0.16195,0.169093,0.169093,0.169093,0.169093,0.169093,0.169093,0.169093,0.169093,0.169093,0.169093,0.169093,0.169093,0.169093,0.169093,0.169093,0.169093,0.169093,0.169093,0.169093,0.169093,0.169093,0.169093,0.169093,0.181593,0.202426,0.219093,0.185759,0.194093,0.183378,0.0405213,-0.0309073,-0.105907,-0.130907,-0.130907,-0.130907,-0.130907,-0.130907,-0.130907,-0.130907,-0.130907,-0.130907,-0.130907,-0.130907,-0.130907,-0.130907,-0.130907,-0.151306,-0.154559,-0.157504,-0.157739,-0.180907,-0.180907,-0.130907,-0.130907,-0.130907,-0.130907,-0.130907,-0.147574,-0.180907,-0.180907,-0.180907,-0.180907,-0.180907,-0.180907,-0.140907,-0.147574,-0.147574,-0.130907,-0.130907,-0.130907,-0.130907,-0.130907,-0.130907,-0.130907,-0.131139,-0.130987,-0.130925,-0.130908,-0.130907,-0.130907,-0.130907,-0.130907,-0.130907,-0.130907,-0.130907,nan,nan,nan,nan,nan,nan,nan,nan,nan,nan,nan,nan,nan,nan,nan,nan,nan,nan,nan,nan,nan,nan,nan,nan,nan,nan,nan,nan,nan,nan,nan,nan,nan,nan,nan,nan,nan,nan,nan,nan,nan,nan,nan,nan,nan,nan,nan,nan,nan,nan,nan,nan,nan,nan,nan,nan,nan,nan,nan,nan,nan,nan,nan,nan,nan,nan,nan,nan,nan,nan,nan,nan,nan,nan,nan,nan,nan,nan,nan,nan,nan,nan,nan,nan,nan,nan,nan,nan,nan,nan,nan,nan,nan,nan,nan,nan,nan,nan,nan,nan,nan,nan,nan,nan,nan,nan,nan,nan,nan,nan,nan,nan,nan,nan,nan,nan,nan,nan,nan,nan,nan
0.119093,0.102426,0.0690927,0.052426,0.0259742,0.0190927,0.0204264,0.0172901,0.0139244,0.00770187,0.00367411,0.0190927,0.0190927,0.027426,0.0190927,0.0190927,0.0190927,0.0178599,0.0196093,0.0390742,0.0602798,0.0533744,0.0690927,0.0690927,0.0190927,0.0371426,0.0190927,0.0180585,0.0150982,0.0198247,0.0440927,0.0190927,0.0234262,0.0216646,0.023515,0.0424618,0.0704213,0.070503,0.0699282,0.0683437,0.0690927,0.0690927,0.0690927,0.0690927,0.052426,0.0315927,0.0190927,0.0400627,0.0401975,0.0633904,0.0808964,0.0766905,0.0690927,0.0690927,0.0690927,0.0690927,0.0702835,0.0772376,0.0837378,0.0690927,0.0690927,0.119093,0.102863,0.115562,0.12661,0.119093,0.169093,0.131593,0.147664,0.119093,0.119093,0.119093,0.119093,0.119093,0.119093,0.119938,0.119093,0.119093,0.119093,0.144093,0.119093,0.119093,0.119093,0.135759,0.139093,0.119093,0.140521,0.152426,0.135759,0.144093,0.137843,0.119093,0.169093,0.149093,0.144093,0.169093,0.169093,0.169093,0.169093,0.169093,0.169093,0.169093,0.169093,0.169093,0.169093,0.169093,0.169093,0.169093,0.169093,0.169093,0.169093,0.169093,0.169093,0.169093,0.169093,0.169093,0.169093,0.219093,0.194093,0.181593,0.219093,0.219093,0.185759,0.0753427,-0.0157141,-0.130907,-0.130907,-0.130907,-0.130907,-0.135909,-0.130907,-0.130907,-0.149657,-0.145907,-0.153635,-0.150907,-0.158685,-0.164241,-0.164241,-0.152336,-0.155907,-0.158685,-0.152336,-0.155907,-0.152336,-0.136463,-0.130907,-0.130907,-0.130907,-0.130907,-0.155907,-0.168407,-0.180907,-0.180907,-0.180907,-0.180907,-0.164241,-0.152336,-0.147574,-0.145193,-0.145193,-0.130907,-0.130907,-0.130907,-0.130907,-0.130907,-0.135526,-0.134056,-0.132679,-0.131752,-0.13121,-0.130957,-0.130908,-0.130907,-0.130907,-0.130907,-0.130907,-0.130907,-0.130907,nan,nan,nan,nan,nan,nan,nan,nan,nan,nan,nan,nan,nan,nan,nan,nan,nan,nan,nan,nan,nan,nan,nan,nan,nan,nan,nan,nan,nan,nan,nan,nan,nan,nan,nan,nan,nan,nan,nan,nan,nan,nan,nan,nan,nan,nan,nan,nan,nan,nan,nan,nan,nan,nan,nan,nan,nan,nan,nan,nan,nan,nan,nan,nan,nan,nan,nan,nan,nan,nan,nan,nan,nan,nan,nan,nan,nan,nan,nan,nan,nan,nan,nan,nan,nan,nan,nan,nan,nan,nan,nan,nan,nan,nan,nan,nan,nan,nan,nan,nan,nan,nan,nan,nan,nan,nan,nan,nan,nan,nan,nan,nan,nan,nan,nan,nan,nan,nan,nan,nan,nan
0.000602607,-0.0117201,0.0913149,0.052426,0.0190927,0.0118476,0.0148849,0.0190927,0.0190927,0.0190927,0.0190927,-0.0684073,0.0190927,0.0190927,0.0190927,0.0190927,0.0138494,0.015987,0.0180276,0.0227845,0.0320391,0.030941,0.0284673,0.0190927,0.0190927,0.0250566,0.0206966,0.0105477,0.00702043,0.00847731,0.0190927,0.0190927,0.00122011,-0.00426842,-0.0108525,-0.0110465,0.064611,0.0689207,0.06814,0.0690927,0.0644124,0.0690927,0.0690927,0.0690927,0.054807,0.0190927,0.0190927,0.0279261,0.0255624,0.0368654,0.0723352,0.0737599,0.0715203,0.0806312,0.0690927,0.061349,0.0588937,0.0625804,0.0706762,0.0690927,0.0690927,0.0690927,0.0910013,0.108541,0.124102,0.119093,0.119093,0.119093,0.126236,0.119093,0.119093,0.119093,0.119093,0.119093,0.119093,0.119093,0.11994,0.119093,0.119093,0.119093,0.119093,0.119093,0.119093,0.119093,0.119093,0.139093,0.119093,0.144093,0.150343,0.144093,0.144093,0.140521,0.129093,0.119093,0.169093,0.144093,0.152426,0.169093,0.169093,0.169093,0.169093,0.169093,0.169093,0.169093,0.169093,0.169093,0.169093,0.169093,0.169093,0.169093,0.169093,0.169093,0.169093,0.169093,0.169093,0.169093,0.169093,0.181593,0.219093,0.206593,0.210759,0.219093,0.219093,0.0857594,-0.0165475,-0.130907,-0.130907,-0.130907,-0.130907,-0.130907,-0.130907,-0.130907,-0.14742,-0.147271,-0.147855,-0.14986,-0.164241,-0.159479,-0.168407,-0.168407,-0.149657,-0.160907,-0.162157,-0.166622,-0.13805,-0.130907,-0.130907,-0.130907,-0.130907,-0.130907,-0.155907,-0.155907,-0.155907,-0.155907,-0.160907,-0.160907,-0.155907,-0.180907,-0.180907,-0.180907,-0.147574,-0.130907,-0.130907,-0.147342,-0.148371,-0.147224,-0.143827,-0.139644,-0.130907,-0.130907,-0.130907,-0.130907,-0.130907,-0.130907,-0.130907,-0.130907,-0.130907,-0.130907,nan,nan,nan,nan,nan,nan,nan,nan,nan,nan,nan,nan,nan,nan,nan,nan,nan,nan,nan,nan,nan,nan,nan,nan,nan,nan,nan,nan,nan,nan,nan,nan,nan,nan,nan,nan,nan,nan,nan,nan,nan,nan,nan,nan,nan,nan,nan,nan,nan,nan,nan,nan,nan,nan,nan,nan,nan,nan,nan,nan,nan,nan,nan,nan,nan,nan,nan,nan,nan,nan,nan,nan,nan,nan,nan,nan,nan,nan,nan,nan,nan,nan,nan,nan,nan,nan,nan,nan,nan,nan,nan,nan,nan,nan,nan,nan,nan,nan,nan,nan,nan,nan,nan,nan,nan,nan,nan,nan,nan,nan,nan,nan,nan,nan,nan,nan,nan,nan,nan,nan,nan,nan
-0.0801188,-0.280907,-0.330907,0.0690927,0.0302038,0.0190927,0.0190927,0.0190927,0.0190927,-0.0061944,-0.00995297,-0.00698571,0.0190927,0.0190927,-0.047574,0.00909271,0.0190927,0.0190927,0.0141049,0.0110389,0.00595632,0.005585,0.00623378,0.0190927,-0.00590729,0.0100309,0.0108772,0.00437469,-0.000946505,-0.00590729,-0.0309073,-0.0309073,-0.0309073,-0.0207228,-0.0249404,-0.0247732,0.0563744,0.0683942,0.0666088,0.0640061,0.0604091,0.0440927,0.0504779,0.0440927,0.0357594,0.0190927,0.0190927,0.0217149,0.0200657,0.0229384,0.0606179,0.072721,0.0701161,0.077426,0.0690927,0.0190927,0.0443504,0.0415467,0.0501207,0.0582272,0.0620343,0.0654789,0.072131,0.0909271,0.11679,0.12557,0.126152,0.124488,0.119093,0.119093,0.119093,0.119093,0.119093,0.119093,0.119093,0.119093,0.119093,0.119725,0.119093,0.119093,0.119093,0.119093,0.119093,0.119093,0.119093,0.119093,0.144093,0.135759,0.139093,0.14182,0.149093,0.152426,0.135759,0.144093,0.127426,0.144093,0.156593,0.152426,0.169093,0.169093,0.169093,0.169093,0.169093,0.169093,0.169093,0.169093,0.169093,0.169093,0.169093,0.169093,0.169093,0.169093,0.169093,0.169093,0.169408,0.170964,0.174642,0.179566,0.169093,0.169093,0.219093,0.199093,0.209093,0.102426,-0.130907,-0.130907,-0.135453,-0.139241,-0.140907,-0.164241,-0.180907,-0.164241,-0.147574,-0.130907,-0.130907,-0.130907,-0.156907,-0.157411,-0.156711,-0.155831,-0.156402,-0.158903,-0.161369,-0.160982,-0.158025,-0.155182,-0.153559,-0.152906,-0.130907,-0.130907,-0.164241,-0.180907,-0.180907,-0.180907,-0.180907,-0.180907,-0.180907,-0.180907,-0.173082,-0.169374,-0.164942,-0.1622,-0.162282,-0.180907,-0.163237,-0.180907,-0.155907,-0.130907,-0.130907,-0.130907,-0.130907,-0.130907,-0.130999,-0.130907,-0.130907,-0.130907,-0.130907,-0.130907,-0.130907,nan,nan,nan,nan,nan,nan,nan,nan,nan,nan,nan,nan,nan,nan,nan,nan,nan,nan,nan,nan,nan,nan,nan,nan,nan,nan,nan,nan,nan,nan,nan,nan,nan,nan,nan,nan,nan,nan,nan,nan,nan,nan,nan,nan,nan,nan,nan,nan,nan,nan,nan,nan,nan,nan,nan,nan,nan,nan,nan,nan,nan,nan,nan,nan,nan,nan,nan,nan,nan,nan,nan,nan,nan,nan,nan,nan,nan,nan,nan,nan,nan,nan,nan,nan,nan,nan,nan,nan,nan,nan,nan,nan,nan,nan,nan,nan,nan,nan,nan,nan,nan,nan,nan,nan,nan,nan,nan,nan,nan,nan,nan,nan,nan,nan,nan,nan,nan,nan,nan,nan,nan
-0.1725,-0.154018,-0.124417,-0.355907,0.0490927,0.027426,0.0190927,0.00242605,-0.047574,-0.019826,-0.0309073,-0.0161561,-0.0309073,0.0190927,0.0190927,0.0190927,0.0190927,0.00388629,0.00441476,-0.00106114,-0.00855479,-0.0121719,-0.00590729,-0.0309073,-0.0105842,-0.00824966,-0.00362486,-0.000566375,-0.00574385,0.0190927,-0.0209073,-0.0309073,-0.0271799,-0.0299584,-0.0313768,-0.0308903,0.0294574,0.0679124,0.0641432,0.0584768,0.0523349,0.0465891,0.0690927,0.0190927,0.0390927,0.0190927,0.0190927,0.0190927,0.0180418,0.0191394,0.0441913,0.0714608,0.0675692,0.0608749,0.0690927,0.0315927,0.0354266,0.0190927,0.0327773,0.0414485,0.0190927,0.0504991,0.0546341,0.065129,0.0949034,0.119076,0.121949,0.120592,0.119093,0.119093,0.119093,0.119093,0.119093,0.119093,0.119093,0.119093,0.119093,0.119093,0.119331,0.119093,0.119093,0.119093,0.119093,0.119093,0.119093,0.119093,0.131593,0.147664,0.139093,0.131593,0.144093,0.144093,0.131593,0.139093,0.139093,0.140521,0.135759,0.152426,0.169093,0.169093,0.169093,0.169093,0.169093,0.169093,0.169093,0.169093,0.169093,0.169093,0.169093,0.169093,0.169093,0.169093,0.169093,0.169093,0.169093,0.169093,0.1711,0.169093,0.169093,0.181026,0.169093,0.219093,0.219093,0.0315927,-0.0885996,-0.118407,-0.130907,-0.180907,-0.180907,-0.180907,-0.180907,-0.180907,-0.180907,-0.180907,-0.180907,-0.155907,-0.160907,-0.147574,-0.130907,-0.130907,-0.130907,-0.165125,-0.169754,-0.172061,-0.171685,-0.170581,-0.180907,-0.180907,-0.180907,-0.180907,-0.180907,-0.180907,-0.180907,-0.180907,-0.180907,-0.180907,-0.180907,-0.180907,-0.178641,-0.180907,-0.180907,-0.180907,-0.180907,-0.180907,-0.180907,-0.155907,-0.130907,-0.130907,-0.180907,-0.130907,-0.130907,-0.132312,-0.131294,-0.131119,-0.130998,-0.130907,-0.130907,-0.130907,-0.130907,nan,nan,nan,nan,nan,nan,nan,nan,nan,nan,nan,nan,nan,nan,nan,nan,nan,nan,nan,nan,nan,nan,nan,nan,nan,nan,nan,nan,nan,nan,nan,nan,nan,nan,nan,nan,nan,nan,nan,nan,nan,nan,nan,nan,nan,nan,nan,nan,nan,nan,nan,nan,nan,nan,nan,nan,nan,nan,nan,nan,nan,nan,nan,nan,nan,nan,nan,nan,nan,nan,nan,nan,nan,nan,nan,nan,nan,nan,nan,nan,nan,nan,nan,nan,nan,nan,nan,nan,nan,nan,nan,nan,nan,nan,nan,nan,nan,nan,nan,nan,nan,nan,nan,nan,nan,nan,nan,nan,nan,nan,nan,nan,nan,nan,nan,nan,nan,nan,nan,nan,nan
-0.246887,-0.214644,-0.171419,-0.126371,-0.330907,-0.00947872,0.0107594,-0.0209073,-0.0309073,-0.0309073,-0.0309073,-0.0309073,-0.0309073,0.0190927,0.0190927,-0.0809073,0.0190927,-0.00920564,-0.00969715,-0.0123432,0.0190927,-0.022131,-0.0309073,-0.0309073,-0.0260968,-0.0256992,-0.0260386,-0.019141,-0.0155468,-0.0197801,-0.0255907,-0.0609073,-0.0309073,-0.0339364,-0.0342951,-0.0349648,-0.0346445,0.0382226,0.0570748,0.0476587,0.0406629,0.0358474,0.0190927,0.0190927,0.0190927,0.0190927,0.0190927,0.0190927,0.0138442,0.0150667,0.02912,0.0682696,0.0631943,0.0548915,0.0690927,0.0290927,0.0190927,0.0254224,0.0253807,0.0313105,0.0440927,0.0690927,0.0690927,0.0477991,0.0607321,0.103693,0.118188,0.117751,0.117264,0.119093,0.119093,0.119093,0.119093,0.118945,0.119093,0.119093,0.119093,0.119093,0.119093,0.119143,0.119093,0.119093,0.119093,0.119093,0.119093,0.119093,0.119093,0.169093,0.144093,0.144093,0.119093,0.159093,0.169093,0.144093,0.144093,0.140521,0.144093,0.119093,0.139093,0.156593,0.169093,0.169093,0.169093,0.169093,0.169093,0.169093,0.169093,0.169093,0.169093,0.169093,0.169093,0.169093,0.169093,0.169093,0.169093,0.169093,0.169093,0.169093,0.169093,0.169093,0.169093,0.169093,0.194093,0.0460158,-0.0270611,-0.0959073,-0.130907,-0.130907,-0.150024,-0.160282,-0.180907,-0.180907,-0.180907,-0.180907,-0.180907,-0.180907,-0.180907,-0.180907,-0.180907,-0.180907,-0.170907,-0.173764,-0.180907,-0.180907,-0.180907,-0.180907,-0.180907,-0.180907,-0.180907,-0.180907,-0.180907,-0.180907,-0.180907,-0.180907,-0.180907,-0.180907,-0.180907,-0.180907,-0.180907,-0.180907,-0.180907,-0.180907,-0.180907,-0.180907,-0.180907,-0.180907,-0.180907,-0.180907,-0.152107,-0.145056,-0.138594,-0.134838,-0.133645,-0.133075,-0.132069,-0.131196,-0.130907,-0.130907,nan,nan,nan,nan,nan,nan,nan,nan,nan,nan,nan,nan,nan,nan,nan,nan,nan,nan,nan,nan,nan,nan,nan,nan,nan,nan,nan,nan,nan,nan,nan,nan,nan,nan,nan,nan,nan,nan,nan,nan,nan,nan,nan,nan,nan,nan,nan,nan,nan,nan,nan,nan,nan,nan,nan,nan,nan,nan,nan,nan,nan,nan,nan,nan,nan,nan,nan,nan,nan,nan,nan,nan,nan,nan,nan,nan,nan,nan,nan,nan,nan,nan,nan,nan,nan,nan,nan,nan,nan,nan,nan,nan,nan,nan,nan,nan,nan,nan,nan,nan,nan,nan,nan,nan,nan,nan,nan,nan,nan,nan,nan,nan,nan,nan,nan,nan,nan,nan,nan,nan,nan,nan
-0.289712,-0.259057,-0.207879,-0.154249,-0.107936,-0.205907,0.0236382,-0.0184073,-0.0309073,-0.0309073,-0.0309073,-0.00590729,-0.0280818,-0.0179551,-0.0161731,-0.0309073,-0.0309073,-0.0235062,-0.0237348,-0.0309073,-0.0254391,-0.0309073,-0.0309073,-0.0309073,-0.0309073,-0.0393538,-0.0509336,-0.0579991,-0.0449408,-0.0344475,-0.032631,-0.0309073,-0.0309073,-0.036826,-0.0392842,-0.0450991,-0.0591711,-0.0738818,-0.0246237,0.0291773,0.0287464,0.0263122,0.0236599,0.0207081,0.0190927,0.0190927,0.00659271,0.00573946,0.00346471,0.00315677,0.0103203,0.0624084,0.0565309,0.0476632,0.0398572,0.0503427,0.0190927,0.0238694,0.0227318,0.0190927,0.0294742,0.0190927,0.0336525,0.0348842,0.0381943,0.0818819,0.116355,0.116577,0.119093,0.0990927,0.119093,0.119093,0.119093,0.119093,0.119093,0.119093,0.119093,0.119093,0.119093,0.119093,0.119256,0.119093,0.119093,0.119093,0.119093,0.119093,0.119093,0.119093,0.169093,0.152426,0.144093,0.119093,0.149093,0.169093,0.169093,0.152426,0.144093,0.140521,0.140521,0.119093,0.131593,0.169093,0.169093,0.169093,0.162807,0.169093,0.169093,0.169093,0.169093,0.169093,0.169093,0.169093,0.169093,0.169093,0.169093,0.169093,0.169093,0.169093,0.169093,0.169093,0.169093,0.169093,0.169093,0.0806312,-0.0142406,-0.0809073,-0.130907,-0.130907,-0.130907,-0.130907,-0.166528,-0.172293,-0.175288,-0.175603,-0.174668,-0.174012,-0.173636,-0.172959,-0.180907,-0.180907,-0.180907,-0.180907,-0.180907,-0.180907,-0.180907,-0.180907,-0.180907,-0.180907,-0.180907,-0.180907,-0.180907,-0.180907,-0.180907,-0.180907,-0.180907,-0.180907,-0.180907,-0.180907,-0.180907,-0.180907,-0.180907,-0.180907,-0.180907,-0.180907,-0.180907,-0.175026,-0.171117,-0.167892,-0.163782,-0.156347,-0.147872,-0.142271,-0.139211,-0.136796,-0.130907,-0.132248,-0.131092,-0.130907,nan,nan,nan,nan,nan,nan,nan,nan,nan,nan,nan,nan,nan,nan,nan,nan,nan,nan,nan,nan,nan,nan,nan,nan,nan,nan,nan,nan,nan,nan,nan,nan,nan,nan,nan,nan,nan,nan,nan,nan,nan,nan,nan,nan,nan,nan,nan,nan,nan,nan,nan,nan,nan,nan,nan,nan,nan,nan,nan,nan,nan,nan,nan,nan,nan,nan,nan,nan,nan,nan,nan,nan,nan,nan,nan,nan,nan,nan,nan,nan,nan,nan,nan,nan,nan,nan,nan,nan,nan,nan,nan,nan,nan,nan,nan,nan,nan,nan,nan,nan,nan,nan,nan,nan,nan,nan,nan,nan,nan,nan,nan,nan,nan,nan,nan,nan,nan,nan,nan,nan,nan,nan
-0.217655,-0.278158,-0.229678,-0.166271,-0.11606,-0.0842133,-0.197574,-0.00947871,-0.330907,-0.0309073,-0.0309073,-0.205907,0.0190927,-0.0289041,-0.0267658,-0.0490891,-0.0309073,-0.0357547,-0.0309073,-0.0379847,-0.039085,-0.0412809,-0.0559073,-0.0809073,-0.0453303,-0.0516383,-0.0682457,-0.0766814,-0.0711152,-0.0549574,-0.0413949,-0.0309073,-0.0309073,-0.0309073,-0.0492286,-0.0582538,-0.0701814,-0.0789236,-0.0731785,0.00262193,0.0197266,0.0179446,0.0190927,0.0134479,0.0190927,0.0190927,-0.0309073,-0.00605187,-0.0115986,-0.0158929,-0.0180465,0.044044,0.0470933,0.039865,0.0344306,0.0190927,0.0190927,0.0190927,0.0190927,0.0220496,0.023226,0.0190927,0.0190927,0.0236172,0.02359,0.0604149,0.114996,0.11654,0.119093,0.119093,0.106593,0.119093,0.119093,0.119093,0.119093,0.122603,0.119093,0.119093,0.119093,0.119093,0.119093,0.119093,0.119093,0.119093,0.119093,0.119093,0.119093,0.119093,0.119093,0.135262,0.169093,0.144093,0.144093,0.144093,0.169093,0.169093,0.169093,0.144093,0.139093,0.140521,0.129093,0.127426,0.149093,0.160759,0.152426,0.169093,0.165092,0.169093,0.169093,0.169093,0.169093,0.169093,0.169093,0.169093,0.169093,0.169093,0.169093,0.169093,0.169093,0.169093,0.169093,0.169093,0.202426,0.0614004,-0.020193,-0.0666216,-0.130907,-0.130907,-0.164241,-0.168407,-0.130907,-0.180907,-0.180907,-0.175531,-0.175874,-0.17683,-0.177992,-0.178353,-0.177971,-0.177617,-0.177845,-0.178817,-0.18,-0.180907,-0.180907,-0.180907,-0.180907,-0.180907,-0.180907,-0.180907,-0.180907,-0.180907,-0.180907,-0.180907,-0.180907,-0.180907,-0.180907,-0.180907,-0.180907,-0.180907,-0.180907,-0.181381,-0.181025,-0.180743,-0.180164,-0.179095,-0.178103,-0.177284,-0.174215,-0.166703,-0.157467,-0.130907,-0.130907,-0.130907,-0.137814,-0.134304,-0.131742,-0.130907,-0.130907,nan,nan,nan,nan,nan,nan,nan,nan,nan,nan,nan,nan,nan,nan,nan,nan,nan,nan,nan,nan,nan,nan,nan,nan,nan,nan,nan,nan,nan,nan,nan,nan,nan,nan,nan,nan,nan,nan,nan,nan,nan,nan,nan,nan,nan,nan,nan,nan,nan,nan,nan,nan,nan,nan,nan,nan,nan,nan,nan,nan,nan,nan,nan,nan,nan,nan,nan,nan,nan,nan,nan,nan,nan,nan,nan,nan,nan,nan,nan,nan,nan,nan,nan,nan,nan,nan,nan,nan,nan,nan,nan,nan,nan,nan,nan,nan,nan,nan,nan,nan,nan,nan,nan,nan,nan,nan,nan,nan,nan,nan,nan,nan,nan,nan,nan,nan,nan,nan,nan,nan,nan
-0.0809073,-0.100399,-0.184038,-0.148304,-0.10219,-0.0768654,-0.0309073,-0.0166216,-0.0611487,-0.0566114,-0.0309073,-0.0309073,-0.0409129,-0.0345721,-0.0336424,-0.0309073,-0.0309073,-0.048778,-0.0309073,-0.0583869,-0.0610455,-0.060735,-0.0573885,-0.0543723,-0.0559307,-0.0678582,-0.0800246,-0.0809073,-0.0809073,-0.0703703,-0.0545297,-0.0482614,-0.0501212,-0.0559073,-0.0609207,-0.068462,-0.0758671,-0.0800937,-0.0792243,-0.0348303,0.010525,0.00868498,0.00616368,0.0190927,0.0190927,0.0190927,-0.0309073,-0.0309073,-0.0232452,-0.0279488,-0.0311039,-0.00870575,0.0367287,0.0346841,0.0328168,0.0308998,0.0253427,0.0190927,0.0190927,0.0209882,0.0190927,0.0190927,0.0190927,0.0163793,0.0138138,0.031083,0.108033,0.116984,0.116101,0.119093,0.119093,0.0990927,0.112843,0.119093,0.119093,0.119093,0.119093,0.119093,0.119093,0.119093,0.119093,0.119093,0.119093,0.119093,0.119093,0.119093,0.119093,0.119093,0.119093,0.119093,0.119093,0.169093,0.169093,0.139093,0.119093,0.169093,0.169093,0.169093,0.169093,0.135759,0.144093,0.144093,0.129093,0.131593,0.149093,0.152426,0.169093,0.169093,0.169093,0.169093,0.169093,0.169093,0.169093,0.169093,0.169093,0.169093,0.169093,0.169093,0.169093,0.169093,0.169093,0.152691,0.169093,0.0652466,-0.00590729,-0.095193,-0.130907,-0.175352,-0.180907,-0.180907,-0.180907,-0.180907,-0.180907,-0.155907,-0.164241,-0.180907,-0.180907,-0.180432,-0.180613,-0.180496,-0.180386,-0.180415,-0.180627,-0.180899,-0.181317,-0.182578,-0.185103,-0.187842,-0.180907,-0.180907,-0.180907,-0.180907,-0.180907,-0.180907,-0.180907,-0.191461,-0.192313,-0.191943,-0.190556,-0.188662,-0.186309,-0.183733,-0.181839,-0.18107,-0.180872,-0.180778,-0.180669,-0.180907,-0.180907,-0.180907,-0.155907,-0.130907,-0.180907,-0.146498,-0.141829,-0.137015,-0.132859,-0.130965,-0.130907,nan,nan,nan,nan,nan,nan,nan,nan,nan,nan,nan,nan,nan,nan,nan,nan,nan,nan,nan,nan,nan,nan,nan,nan,nan,nan,nan,nan,nan,nan,nan,nan,nan,nan,nan,nan,nan,nan,nan,nan,nan,nan,nan,nan,nan,nan,nan,nan,nan,nan,nan,nan,nan,nan,nan,nan,nan,nan,nan,nan,nan,nan,nan,nan,nan,nan,nan,nan,nan,nan,nan,nan,nan,nan,nan,nan,nan,nan,nan,nan,nan,nan,nan,nan,nan,nan,nan,nan,nan,nan,nan,nan,nan,nan,nan,nan,nan,nan,nan,nan,nan,nan,nan,nan,nan,nan,nan,nan,nan,nan,nan,nan,nan,nan,nan,nan,nan,nan,nan,nan,nan
-0.0809073,-0.0809394,-0.0854332,-0.0935588,-0.0690061,-0.0558181,-0.0509061,-0.0218164,-0.049558,-0.0309073,-0.0309073,-0.0309073,-0.0390265,-0.0366231,-0.0309073,-0.0309073,-0.0309073,-0.114241,-0.0732908,-0.0772695,-0.0809073,-0.0806575,-0.0780368,-0.0732092,-0.0758237,-0.0857333,-0.0897293,-0.0894661,-0.0809073,-0.0809765,-0.0698621,-0.0634786,-0.0632278,-0.0684073,-0.0809073,-0.0737366,-0.0809073,-0.080422,-0.0806924,-0.0664338,-0.00614475,-0.00240298,-0.00487599,-0.00590729,-0.0309073,-0.0121579,-0.0178524,-0.0309073,-0.0297692,-0.0342095,-0.0394759,-0.0478264,0.0231658,0.0365889,0.0366297,0.034968,0.0690927,0.0340927,0.0190927,0.0190927,0.0190927,0.0190927,0.004807,0.0122155,0.0074402,0.00640359,0.0717345,0.116087,0.116695,0.115267,0.11416,0.114284,0.115919,0.119093,0.119093,0.119093,0.189093,0.214093,0.141781,0.119093,0.129093,0.119093,0.126236,0.119093,0.119093,0.119093,0.119093,0.119093,0.119093,0.119093,0.119093,0.119093,0.169093,0.152426,0.135759,0.119093,0.144093,0.169093,0.169093,0.169093,0.169093,0.149093,0.160759,0.119093,0.119093,0.152426,0.158696,0.169093,0.168311,0.169022,0.169092,0.169093,0.169093,0.169093,0.169093,0.169093,0.169093,0.169093,0.169103,0.168966,0.169093,0.169093,0.169093,0.110002,-0.0309073,-0.0945437,-0.119796,-0.130907,-0.180907,-0.180907,-0.180907,-0.180907,-0.180907,-0.180907,-0.180907,-0.180907,-0.180907,-0.180907,-0.180907,-0.180907,-0.180907,-0.180344,-0.180494,-0.181415,-0.183065,-0.18643,-0.192371,-0.198963,-0.203272,-0.204731,-0.204278,-0.203025,-0.202284,-0.203128,-0.205595,-0.208881,-0.211618,-0.21203,-0.20884,-0.202554,-0.194894,-0.187853,-0.180907,-0.180907,-0.180907,-0.180907,-0.180907,-0.180907,-0.17889,-0.180907,-0.180907,-0.180907,-0.15374,-0.1478,-0.141934,-0.13642,-0.132371,-0.130907,-0.130907,nan,nan,nan,nan,nan,nan,nan,nan,nan,nan,nan,nan,nan,nan,nan,nan,nan,nan,nan,nan,nan,nan,nan,nan,nan,nan,nan,nan,nan,nan,nan,nan,nan,nan,nan,nan,nan,nan,nan,nan,nan,nan,nan,nan,nan,nan,nan,nan,nan,nan,nan,nan,nan,nan,nan,nan,nan,nan,nan,nan,nan,nan,nan,nan,nan,nan,nan,nan,nan,nan,nan,nan,nan,nan,nan,nan,nan,nan,nan,nan,nan,nan,nan,nan,nan,nan,nan,nan,nan,nan,nan,nan,nan,nan,nan,nan,nan,nan,nan,nan,nan,nan,nan,nan,nan,nan,nan,nan,nan,nan,nan,nan,nan,nan,nan,nan,nan,nan,nan,nan,nan
-0.0809073,-0.0809073,-0.0805432,-0.0640372,-0.0446302,-0.0425689,-0.0421098,-0.022574,-0.0432516,-0.0309073,-0.0809073,-0.0309073,-0.0309073,-0.0423947,-0.0309073,-0.0309073,-0.047574,-0.083108,-0.0559073,-0.0809073,-0.0934073,-0.0809073,-0.0916186,-0.0908738,-0.0915859,-0.0952692,-0.097865,-0.0809073,-0.0965906,-0.0906586,-0.080566,-0.0809073,-0.0709053,-0.072574,-0.0809073,-0.0752813,-0.0784284,-0.0804011,-0.0810416,-0.0783463,-0.0344165,-0.0147947,-0.0163149,-0.0309073,-0.0309073,-0.0309073,-0.0254012,-0.0309073,-0.036305,-0.0432438,-0.051971,-0.0622933,-0.0448828,0.0451098,0.0439885,0.0402145,0.0356486,0.0440927,0.0190927,0.0190927,0.0195616,0.0190927,0.027426,-0.00590729,0.0017032,-0.00534007,0.00674543,0.0980765,0.117077,0.115565,0.113889,0.113946,0.116004,0.11998,0.129384,0.145778,0.160808,0.259093,0.119093,0.136675,0.124159,0.119497,0.119093,0.119093,0.119093,0.119093,0.113639,0.119093,0.119093,0.119093,0.119093,0.13308,0.13633,0.144093,0.119093,0.119093,0.135753,0.119093,0.119093,0.169093,0.144093,0.169093,0.169093,0.119093,0.134249,0.14183,0.154731,0.164285,0.168077,0.169006,0.169093,0.169093,0.169093,0.169093,0.169093,0.169093,0.169093,0.169093,0.169092,0.168712,0.162511,0.137505,0.169093,0.139093,-0.0809073,-0.0892406,-0.112725,-0.130907,-0.130907,-0.130907,-0.130907,-0.130907,-0.159785,-0.180907,-0.180907,-0.180907,-0.180907,-0.180907,-0.180907,-0.180907,-0.180907,-0.180907,-0.180907,-0.180907,-0.180907,-0.180907,-0.180907,-0.230907,-0.230907,-0.230907,-0.230907,-0.230907,-0.230907,-0.230907,-0.230907,-0.230907,-0.230907,-0.230907,-0.219807,-0.230907,-0.197574,-0.180907,-0.180907,-0.180907,-0.180907,-0.180907,-0.180907,-0.180907,-0.180907,-0.175231,-0.166982,-0.157523,-0.149053,-0.141955,-0.136376,-0.132711,-0.131127,-0.130907,nan,nan,nan,nan,nan,nan,nan,nan,nan,nan,nan,nan,nan,nan,nan,nan,nan,nan,nan,nan,nan,nan,nan,nan,nan,nan,nan,nan,nan,nan,nan,nan,nan,nan,nan,nan,nan,nan,nan,nan,nan,nan,nan,nan,nan,nan,nan,nan,nan,nan,nan,nan,nan,nan,nan,nan,nan,nan,nan,nan,nan,nan,nan,nan,nan,nan,nan,nan,nan,nan,nan,nan,nan,nan,nan,nan,nan,nan,nan,nan,nan,nan,nan,nan,nan,nan,nan,nan,nan,nan,nan,nan,nan,nan,nan,nan,nan,nan,nan,nan,nan,nan,nan,nan,nan,nan,nan,nan,nan,nan,nan,nan,nan,nan,nan,nan,nan,nan,nan,nan,nan,nan
-0.0809073,-0.0809073,-0.0805444,-0.0712626,-0.0561389,-0.0531607,-0.0521523,-0.0309073,-0.0503353,-0.0434073,-0.0309073,-0.0309073,-0.0309073,-0.0538014,-0.0309073,-0.0809073,-0.0809073,-0.280907,-0.0809073,-0.0809073,-0.097574,-0.105907,-0.0998596,-0.100198,-0.0997014,-0.0809073,-0.105907,-0.130907,-0.105843,-0.0992889,-0.0873492,-0.0809073,-0.0809073,-0.0509073,-0.0725739,-0.0756708,-0.0809073,-0.0809073,-0.0827695,-0.0827416,-0.0652668,-0.0291351,-0.0274945,-0.0290025,-0.0301595,-0.0309901,-0.0328096,-0.0383012,-0.0309073,-0.0558412,-0.0640868,-0.0709094,-0.0745398,0.0269136,0.0507285,0.0443092,0.0379862,0.0319546,0.0265417,0.0225252,0.019772,0.0159314,0.0390927,-0.00818001,-0.00406908,-0.01161,-0.0175085,0.0177986,0.110777,0.116106,0.113793,0.114024,0.116519,0.120916,0.133879,0.157249,0.176192,0.178291,0.163809,0.139286,0.121569,0.115313,0.119093,0.119093,0.0940927,0.103048,0.119093,0.119093,0.119093,0.109301,0.115539,0.124779,0.127319,0.119093,0.119093,0.118291,0.120245,0.126489,0.132271,0.119093,0.119093,0.169093,0.119093,0.119345,0.115847,0.122317,0.142955,0.161965,0.168059,0.169023,0.169093,0.169093,0.169093,0.169093,0.169093,0.169093,0.169093,0.169093,0.169093,0.16628,0.14522,0.100664,0.0476916,-0.00174816,-0.0809073,-0.0809073,-0.0809073,-0.105907,-0.102336,-0.112157,-0.130907,-0.130907,-0.130907,-0.163128,-0.173441,-0.17921,-0.180907,-0.180907,-0.180907,-0.180907,-0.180907,-0.180907,-0.180907,-0.180907,-0.180907,-0.180907,-0.180907,-0.200907,-0.230907,-0.230907,-0.230907,-0.229135,-0.22928,-0.22779,-0.214241,-0.216622,-0.218407,-0.230907,-0.220907,-0.214241,-0.180907,-0.190907,-0.190245,-0.186454,-0.180907,-0.180907,-0.181254,-0.180813,-0.179174,-0.171991,-0.159047,-0.147403,-0.130907,-0.130907,-0.130907,-0.131159,-0.130912,-0.130907,-0.130907,nan,nan,nan,nan,nan,nan,nan,nan,nan,nan,nan,nan,nan,nan,nan,nan,nan,nan,nan,nan,nan,nan,nan,nan,nan,nan,nan,nan,nan,nan,nan,nan,nan,nan,nan,nan,nan,nan,nan,nan,nan,nan,nan,nan,nan,nan,nan,nan,nan,nan,nan,nan,nan,nan,nan,nan,nan,nan,nan,nan,nan,nan,nan,nan,nan,nan,nan,nan,nan,nan,nan,nan,nan,nan,nan,nan,nan,nan,nan,nan,nan,nan,nan,nan,nan,nan,nan,nan,nan,nan,nan,nan,nan,nan,nan,nan,nan,nan,nan,nan,nan,nan,nan,nan,nan,nan,nan,nan,nan,nan,nan,nan,nan,nan,nan,nan,nan,nan,nan,nan,nan
-0.0809073,-0.0810283,-0.0806633,-0.0767461,-0.0702993,-0.067474,-0.0309073,-0.105907,-0.063069,-0.0309073,-0.0642406,-0.0309073,-0.0809073,-0.0680821,-0.0809073,-0.0809073,-0.0955298,-0.109283,-0.0809073,-0.0809073,-0.0809073,-0.116622,-0.0809073,-0.109191,-0.108393,-0.0809073,-0.110409,-0.130907,-0.097574,-0.105672,-0.0945164,-0.0818203,-0.074072,-0.0722272,-0.0594787,-0.0809073,-0.0809073,-0.0852557,-0.088589,-0.0910824,-0.0889973,-0.0543909,-0.0396052,-0.0400093,-0.0559073,-0.0400725,-0.0417646,-0.0507944,-0.0606731,-0.0809073,-0.0727055,-0.0761722,-0.0786,-0.0653297,0.0501344,0.0459608,0.0388362,0.032283,0.0266752,0.0228158,0.0193932,0.0131251,0.00537893,-0.0142406,-0.0309073,-0.0165391,-0.0227193,-0.0257974,0.0373292,0.11693,0.114188,0.115102,0.117646,0.12104,0.138449,0.172309,0.192706,0.189696,0.167256,0.132589,0.113879,0.119093,0.119093,0.109093,0.0857594,0.0857594,0.0887503,0.0690927,0.0901381,0.091109,0.0958912,0.109302,0.115863,0.119093,0.119093,0.0690927,0.104591,0.106325,0.119093,0.119093,0.115635,0.110836,0.0857594,0.0690927,0.082132,0.0747939,0.0806178,0.117442,0.158243,0.169093,0.169093,0.169093,0.169093,0.169093,0.169093,0.169093,0.169093,0.169093,0.167131,0.127834,0.0677114,0.0270849,-0.00389197,-0.0309073,-0.0684073,-0.0809073,-0.0809073,-0.0892406,-0.0885996,-0.114241,-0.114241,-0.130907,-0.143407,-0.180907,-0.173855,-0.180829,-0.182097,-0.181613,-0.181311,-0.18077,-0.179884,-0.180907,-0.130907,-0.193407,-0.230907,-0.210144,-0.230907,-0.219856,-0.180907,-0.230907,-0.230907,-0.230907,-0.235454,-0.230907,-0.223764,-0.214241,-0.230907,-0.230907,-0.230907,-0.230907,-0.218407,-0.207821,-0.202303,-0.180907,-0.192454,-0.187108,-0.182974,-0.180857,-0.176561,-0.161655,-0.145127,-0.130907,-0.133438,-0.131812,-0.131086,-0.130912,-0.130907,-0.130907,nan,nan,nan,nan,nan,nan,nan,nan,nan,nan,nan,nan,nan,nan,nan,nan,nan,nan,nan,nan,nan,nan,nan,nan,nan,nan,nan,nan,nan,nan,nan,nan,nan,nan,nan,nan,nan,nan,nan,nan,nan,nan,nan,nan,nan,nan,nan,nan,nan,nan,nan,nan,nan,nan,nan,nan,nan,nan,nan,nan,nan,nan,nan,nan,nan,nan,nan,nan,nan,nan,nan,nan,nan,nan,nan,nan,nan,nan,nan,nan,nan,nan,nan,nan,nan,nan,nan,nan,nan,nan,nan,nan,nan,nan,nan,nan,nan,nan,nan,nan,nan,nan,nan,nan,nan,nan,nan,nan,nan,nan,nan,nan,nan,nan,nan,nan,nan,nan,nan,nan,nan,nan
-0.0809073,-0.0818639,-0.0812946,-0.079592,-0.0770914,-0.0756725,-0.0809073,-0.0809073,-0.0809073,-0.0809073,-0.0809073,-0.0809073,-0.0737851,-0.0809073,-0.147574,-0.0908711,-0.100918,-0.11427,-0.0809073,-0.330907,-0.097574,-0.105907,-0.130907,-0.118402,-0.130907,-0.114378,-0.113891,-0.130907,-0.130907,-0.0809073,-0.0809073,-0.0898357,-0.0775163,-0.0748001,-0.0809073,-0.0725739,-0.0862226,-0.0809073,-0.0809073,-0.103938,-0.10842,-0.100251,-0.0686315,-0.0589897,-0.0551152,-0.0519985,-0.057584,-0.0688369,-0.073947,-0.0737644,-0.077879,-0.0791588,-0.0809724,-0.0860994,-0.0645365,0.0383668,0.0384874,0.0320713,0.0264937,0.0228075,0.0174563,0.008162,-0.000617579,-0.00820548,-0.014853,-0.0206252,-0.0254426,-0.0291125,nan,nan,nan,0.118536,0.119058,0.119447,0.143593,0.197701,0.21039,0.195441,0.156894,0.117058,0.104186,0.0985406,0.0690927,0.0990927,0.0690927,0.0690927,0.0690927,0.0690927,0.0690927,0.0690927,0.0744976,0.0897607,0.104186,0.119093,0.119093,0.119093,0.0940927,0.0903449,0.0899305,0.0904617,0.0891,0.0844578,0.0690927,0.0667431,0.0548449,0.0421876,0.0316165,0.0271622,0.0321824,0.0518688,nan,0.169093,0.169093,0.169093,0.169093,0.169093,0.169093,0.169262,0.095168,0.0176093,0.0019109,-0.0103776,-0.0224973,-0.0309073,-0.0627255,-0.0746573,-0.0809073,-0.0809073,-0.097574,-0.110907,-0.118407,-0.130907,-0.172574,-0.180907,-0.180157,-0.186684,-0.186147,-0.183866,-0.180907,-0.182356,-0.180907,-0.184191,-0.191574,-0.230907,-0.230907,-0.230907,-0.230907,-0.230907,-0.230907,-0.230907,-0.230907,-0.230907,-0.243407,-0.247574,-0.230907,-0.230907,-0.230907,-0.230907,-0.230907,-0.230907,-0.226106,-0.225915,-0.223998,-0.230907,-0.210203,-0.200395,-0.190059,-0.18193,-0.16943,-0.145619,-0.134548,-0.131872,-0.131221,-0.130975,-0.130907,-0.130907,-0.130907,-0.130907,nan,nan,nan,nan,nan,nan,nan,nan,nan,nan,nan,nan,nan,nan,nan,nan,nan,nan,nan,nan,nan,nan,nan,nan,nan,nan,nan,nan,nan,nan,nan,nan,nan,nan,nan,nan,nan,nan,nan,nan,nan,nan,nan,nan,nan,nan,nan,nan,nan,nan,nan,nan,nan,nan,nan,nan,nan,nan,nan,nan,nan,nan,nan,nan,nan,nan,nan,nan,nan,nan,nan,nan,nan,nan,nan,nan,nan,nan,nan,nan,nan,nan,nan,nan,nan,nan,nan,nan,nan,nan,nan,nan,nan,nan,nan,nan,nan,nan,nan,nan,nan,nan,nan,nan,nan,nan,nan,nan,nan,nan,nan,nan,nan,nan,nan,nan,nan,nan,nan,nan,nan,nan
-0.0809073,-0.0809073,-0.0823499,-0.0809561,-0.0809073,-0.0809073,-0.0809073,-0.0809073,-0.0809073,-0.0809073,-0.0809073,-0.0809073,-0.0809073,-0.0809073,-0.0809073,-0.0952983,-0.0995514,-0.111832,-0.0809073,-0.139502,-0.142737,-0.121816,-0.130907,-0.125968,-0.130907,-0.130907,-0.11344,-0.113596,-0.130907,-0.130907,-0.11051,-0.10173,-0.0872228,-0.0822521,-0.0833263,-0.0809073,-0.0809073,-0.130907,-0.108145,-0.115491,-0.122735,-0.129627,-0.121328,-0.104965,-0.0930459,-0.0870595,-0.0918183,-0.0901007,-0.0861805,-0.0809073,-0.0809073,-0.083318,-0.089411,-0.105364,-0.124388,-0.12299,-0.0185834,0.0323476,0.0262317,0.0219106,0.0120042,0.00107766,-0.00735915,-0.0141894,-0.0197918,-0.0242446,-0.0275963,-0.0300028,nan,nan,nan,nan,nan,nan,0.189058,0.251511,0.23136,0.195671,0.130052,0.102602,0.0941194,0.0882153,0.0830672,0.0690927,0.0690927,0.0690927,0.0690927,0.0694688,0.0690927,0.0690927,0.0600758,0.0715544,0.0921137,0.0690927,0.119093,0.0690927,0.119093,0.0690927,0.0690927,0.0690927,0.0690927,0.0690927,0.0690927,0.052426,0.0190927,0.0331435,0.025677,0.0215351,0.0196749,0.0190927,0.0190927,nan,nan,nan,nan,nan,0.202424,0.337166,0.265821,0.156911,0.0769113,0.0289947,-0.0309073,-0.0142406,-0.0309073,-0.0600739,-0.0709073,-0.0809073,-0.0809073,-0.0809073,-0.130907,-0.130907,-0.155907,-0.180907,-0.180907,-0.180907,-0.180907,-0.180907,-0.180907,-0.180907,-0.180907,-0.180907,-0.196104,-0.208744,-0.230907,-0.230907,-0.230907,-0.240907,-0.255907,-0.230907,-0.23805,-0.240907,-0.240907,-0.280907,-0.255907,-0.230907,-0.230907,-0.23317,-0.230907,-0.230907,-0.240174,-0.246329,-0.230907,-0.230907,-0.231791,-0.222626,-0.214078,-0.212235,-0.185976,-0.141909,-0.131967,-0.130917,-0.130907,-0.130907,-0.130907,-0.130907,-0.130907,-0.130907,nan,nan,nan,nan,nan,nan,nan,nan,nan,nan,nan,nan,nan,nan,nan,nan,nan,nan,nan,nan,nan,nan,nan,nan,nan,nan,nan,nan,nan,nan,nan,nan,nan,nan,nan,nan,nan,nan,nan,nan,nan,nan,nan,nan,nan,nan,nan,nan,nan,nan,nan,nan,nan,nan,nan,nan,nan,nan,nan,nan,nan,nan,nan,nan,nan,nan,nan,nan,nan,nan,nan,nan,nan,nan,nan,nan,nan,nan,nan,nan,nan,nan,nan,nan,nan,nan,nan,nan,nan,nan,nan,nan,nan,nan,nan,nan,nan,nan,nan,nan,nan,nan,nan,nan,nan,nan,nan,nan,nan,nan,nan,nan,nan,nan,nan,nan,nan,nan,nan,nan,nan,nan
-0.0809073,-0.0809073,-0.0835855,-0.0809073,-0.0816045,-0.0809073,-0.0809073,-0.0809073,-0.0809073,-0.0809073,-0.0809073,-0.0809073,-0.0927468,-0.0809073,-0.097574,-0.100074,-0.0976536,-0.10511,-0.0809073,-0.144737,-0.330907,-0.120907,-0.130907,-0.130834,-0.123886,-0.130907,-0.0809073,-0.0809073,-0.116935,-0.130907,-0.121851,-0.119137,-0.105997,-0.0943329,-0.0911551,-0.0809073,-0.0809073,-0.130907,-0.130907,-0.130907,-0.132341,-0.14217,-0.142853,-0.135937,-0.129317,-0.125317,-0.119918,-0.109956,-0.100724,-0.0809073,-0.0809073,-0.095156,-0.107312,-0.121852,-0.129404,-0.130896,-0.130907,-0.126296,nan,nan,0.00036947,-0.0118597,-0.0227682,-0.0312703,-0.0377961,-0.0427748,-0.0465896,-0.0494547,nan,nan,nan,nan,nan,nan,nan,nan,nan,0.189058,0.105222,0.0903991,0.0825758,0.078021,0.0748767,0.0690927,0.0690927,0.0690927,0.0690927,0.0690927,0.0690927,0.054807,0.0477038,0.052858,0.0767753,0.0690927,0.119093,0.0690927,0.0690927,0.0690927,0.0690927,0.0690927,0.0690927,0.0690927,0.0690927,0.0413149,0.0440927,0.0190927,0.0235337,0.0204694,0.018987,0.0184686,0.0188162,nan,nan,nan,nan,1.06979,0.833481,0.575721,0.467308,0.359825,0.235615,0.133499,-0.00590729,-0.00590729,-0.0166216,-0.0309073,-0.0684073,-0.045193,-0.130907,-0.0809073,-0.105907,-0.0809073,-0.168407,-0.187157,-0.230907,-0.220907,-0.193407,-0.192018,-0.185907,-0.190907,-0.199657,-0.190907,-0.195907,-0.205907,-0.22299,-0.233389,-0.255907,-0.255907,-0.255907,-0.240229,-0.241451,-0.247092,-0.255907,-0.280907,-0.255907,-0.230907,-0.238302,-0.255907,-0.230907,-0.241618,-0.252832,-0.280907,-0.280907,-0.257075,-0.251923,-0.251249,-0.26437,-0.277273,-0.276903,-0.253142,-0.191664,-0.146674,-0.133728,-0.131215,-0.131319,-0.130907,nan,nan,nan,nan,nan,nan,nan,nan,nan,nan,nan,nan,nan,nan,nan,nan,nan,nan,nan,nan,nan,nan,nan,nan,nan,nan,nan,nan,nan,nan,nan,nan,nan,nan,nan,nan,nan,nan,nan,nan,nan,nan,nan,nan,nan,nan,nan,nan,nan,nan,nan,nan,nan,nan,nan,nan,nan,nan,nan,nan,nan,nan,nan,nan,nan,nan,nan,nan,nan,nan,nan,nan,nan,nan,nan,nan,nan,nan,nan,nan,nan,nan,nan,nan,nan,nan,nan,nan,nan,nan,nan,nan,nan,nan,nan,nan,nan,nan,nan,nan,nan,nan,nan,nan,nan,nan,nan,nan,nan,nan,nan,nan,nan,nan,nan,nan,nan,nan,nan,nan,nan,nan,nan,nan
-0.130907,-0.0809073,-0.0858438,-0.0809073,-0.0809073,-0.0809073,-0.0809073,-0.0935253,-0.205907,-0.0809073,-0.0809073,-0.0809073,-0.10513,-0.0909073,-0.120907,-0.108825,-0.102345,-0.102491,-0.0809073,-0.143912,-0.15241,-0.130907,-0.130907,-0.134115,-0.125195,-0.116138,-0.113276,-0.0809073,-0.130907,-0.134638,-0.140331,-0.14141,-0.126894,-0.106697,-0.130907,-0.0975097,-0.0809073,-0.097574,-0.130907,-0.130907,-0.140034,-0.150709,-0.15196,-0.130907,-0.141936,-0.13536,-0.128982,-0.12296,-0.130907,-0.110215,-0.108687,-0.114069,-0.122843,-0.128652,-0.130636,-0.130907,-0.130907,-0.130907,nan,nan,-0.0572987,-0.0601028,-0.0631623,-0.0654981,-0.0674513,-0.0692348,-0.0709937,-0.0732647,-0.0787214,-0.0871573,nan,nan,nan,nan,nan,nan,nan,nan,nan,0.0747935,0.0722665,0.0712098,0.0704594,0.0697473,0.0690927,0.0690927,0.0690927,0.0690927,0.0545348,0.027426,0.0190927,0.0362223,0.0555334,0.0790453,0.083589,0.0690927,0.0690927,0.0690927,0.0695405,0.0690927,0.0690927,0.0690927,0.0690927,0.054807,0.0190927,0.0190927,0.0190927,0.0182511,0.0159856,0.0133798,0.00956591,-0.00589496,nan,nan,1.0702,1.05482,0.941083,0.759613,0.622139,0.514953,0.397901,0.274937,0.0290927,0.0232594,0.0440927,-0.0121573,-0.0409073,-0.0559073,-0.0809073,-0.130907,-0.105907,-0.139111,-0.166167,-0.197574,-0.230907,-0.223764,-0.180907,-0.180907,-0.180907,-0.180907,-0.180907,-0.180907,-0.180907,-0.214241,-0.22489,-0.230907,-0.244538,-0.247075,-0.245216,-0.243138,-0.230907,-0.230907,-0.261002,-0.262682,-0.257244,-0.230907,-0.230907,-0.239199,-0.239984,-0.247604,-0.260833,-0.280907,-0.280907,-0.270513,-0.269775,-0.272352,-0.275328,-0.276465,-0.277531,-0.278506,-0.277547,-0.273825,-0.279495,-0.312357,-0.330781,-0.330907,-0.330907,nan,nan,nan,nan,nan,nan,nan,nan,nan,nan,nan,nan,nan,nan,nan,nan,nan,nan,nan,nan,nan,nan,nan,nan,nan,nan,nan,nan,nan,nan,nan,nan,nan,nan,nan,nan,nan,nan,nan,nan,nan,nan,nan,nan,nan,nan,nan,nan,nan,nan,nan,nan,nan,nan,nan,nan,nan,nan,nan,nan,nan,nan,nan,nan,nan,nan,nan,nan,nan,nan,nan,nan,nan,nan,nan,nan,nan,nan,nan,nan,nan,nan,nan,nan,nan,nan,nan,nan,nan,nan,nan,nan,nan,nan,nan,nan,nan,nan,nan,nan,nan,nan,nan,nan,nan,nan,nan,nan,nan,nan,nan,nan,nan,nan,nan,nan,nan,nan,nan,nan,nan,nan,nan
-0.0809073,-0.0809073,-0.0914533,-0.0809073,-0.0938567,-0.0809073,-0.0809073,-0.10052,-0.0809073,-0.0809073,-0.0809073,-0.0809073,-0.230907,-0.114241,-0.130907,-0.119658,-0.114734,-0.114126,-0.130748,-0.147358,-0.130907,-0.152456,-0.130907,-0.140636,-0.131859,-0.12443,-0.124993,-0.133145,-0.150907,-0.152555,-0.15689,-0.153928,-0.138386,-0.11781,-0.106627,-0.0809073,-0.106893,-0.0809073,-0.130907,-0.13418,-0.147761,-0.180907,-0.160416,-0.130907,-0.150295,-0.140037,-0.132054,-0.130907,-0.130907,-0.123873,-0.123839,-0.126402,-0.130907,-0.130907,-0.13088,-0.130907,-0.130907,-0.130907,-0.130907,nan,-0.0657273,-0.0696615,-0.0714382,-0.0726686,-0.0738812,-0.0753193,-0.0772274,-0.0804789,-0.0881862,-0.106884,-0.129215,nan,nan,nan,nan,nan,nan,nan,nan,0.0690927,0.0691187,0.0692223,0.0691181,0.0685805,0.0690927,0.0690927,0.0690927,0.0690927,0.0690927,0.0190927,0.0190927,0.0260529,0.0329103,0.0581931,0.0748086,0.0732094,0.0690078,0.0690927,0.0690927,0.0654395,0.0690927,0.0561709,0.0466106,0.0565927,0.0253427,0.0190927,0.0190927,0.0139311,0.00960883,0.00294611,-0.00880733,-0.0295156,nan,nan,1.07998,1.07001,1.00702,0.889551,0.762158,0.649186,0.235759,1.05659,0.0190927,0.178468,0.146593,0.101446,-0.0142406,-0.097574,-0.115523,-0.119796,-0.130907,-0.148422,-0.180907,-0.180907,-0.180907,-0.180907,-0.180907,-0.180907,-0.180907,-0.180907,-0.195337,-0.200643,-0.205907,-0.230907,-0.23805,-0.230907,-0.251031,-0.247574,-0.242018,-0.236463,-0.230907,-0.280907,-0.280907,-0.280907,-0.280907,-0.243407,-0.230907,-0.245193,-0.221816,-0.240907,-0.265107,-0.273827,-0.277063,-0.277751,-0.277528,-0.276331,-0.274912,-0.274632,-0.275767,-0.27773,-0.280748,-0.289021,-0.308335,-0.32548,-0.330529,-0.330907,-0.330907,-0.330907,nan,nan,nan,nan,nan,nan,nan,nan,nan,nan,nan,nan,nan,nan,nan,nan,nan,nan,nan,nan,nan,nan,nan,nan,nan,nan,nan,nan,nan,nan,nan,nan,nan,nan,nan,nan,nan,nan,nan,nan,nan,nan,nan,nan,nan,nan,nan,nan,nan,nan,nan,nan,nan,nan,nan,nan,nan,nan,nan,nan,nan,nan,nan,nan,nan,nan,nan,nan,nan,nan,nan,nan,nan,nan,nan,nan,nan,nan,nan,nan,nan,nan,nan,nan,nan,nan,nan,nan,nan,nan,nan,nan,nan,nan,nan,nan,nan,nan,nan,nan,nan,nan,nan,nan,nan,nan,nan,nan,nan,nan,nan,nan,nan,nan,nan,nan,nan,nan,nan,nan,nan,nan
-0.0809073,-0.0809073,-0.101596,-0.0934073,-0.107491,-0.110907,-0.097574,-0.11153,-0.0809073,-0.114241,-0.114241,-0.122953,-0.130907,-0.130907,-0.129906,-0.128225,-0.128286,-0.135231,-0.149306,-0.15895,-0.130907,-0.180907,-0.159121,-0.154454,-0.145947,-0.130907,-0.130907,-0.151096,-0.168407,-0.180907,-0.180907,-0.130907,-0.141999,-0.127725,-0.117446,-0.130907,-0.11449,-0.130907,-0.118407,-0.143407,-0.154799,-0.155907,-0.168352,-0.180907,-0.16006,-0.146211,-0.130907,-0.130907,-0.129993,-0.130907,-0.130907,-0.130907,-0.130907,-0.130907,-0.130988,-0.130946,-0.130911,-0.130907,-0.130907,nan,-0.0741229,-0.0745264,-0.0750199,-0.0757876,-0.0559073,-0.0782108,-0.0802171,-0.0838694,-0.091168,-0.102754,-0.112257,-0.111563,-0.10602,nan,nan,nan,nan,nan,nan,nan,0.0690927,0.0690849,0.0687091,0.0674494,0.0650427,0.0612515,0.0440927,0.0690927,0.0440927,0.0490927,0.0190927,0.0190927,0.0186612,0.0254791,0.0489548,0.0605992,0.0592459,0.0585142,0.0594596,0.059371,0.0549544,0.0190927,0.0366841,0.0190927,-0.00590729,0.0190927,0.0190927,0.00563831,-0.00102621,-0.00968883,-0.021124,-0.0305599,nan,1.0848,1.09563,1.09105,1.05717,0.987335,0.891601,0.600343,0.500503,0.524528,0.314093,0.246365,0.319093,0.100285,0.000103328,-0.0809073,-0.097574,-0.0684073,-0.135359,-0.160313,-0.180907,-0.189241,-0.180907,-0.222574,-0.230907,-0.230907,-0.201992,-0.193407,-0.200907,-0.202336,-0.203635,-0.214241,-0.230907,-0.243407,-0.280907,-0.266622,-0.230907,-0.230907,-0.257479,-0.264241,-0.280907,-0.280907,-0.280907,-0.264241,-0.255907,-0.230907,-0.249765,-0.264241,-0.280907,-0.270907,-0.280907,-0.280907,-0.279649,-0.280907,-0.280907,-0.280907,-0.280907,-0.27718,-0.282521,-0.295387,-0.314953,-0.32712,-0.330527,-0.330907,-0.330907,-0.330907,-0.330907,nan,nan,nan,nan,nan,nan,nan,nan,nan,nan,nan,nan,nan,nan,nan,nan,nan,nan,nan,nan,nan,nan,nan,nan,nan,nan,nan,nan,nan,nan,nan,nan,nan,nan,nan,nan,nan,nan,nan,nan,nan,nan,nan,nan,nan,nan,nan,nan,nan,nan,nan,nan,nan,nan,nan,nan,nan,nan,nan,nan,nan,nan,nan,nan,nan,nan,nan,nan,nan,nan,nan,nan,nan,nan,nan,nan,nan,nan,nan,nan,nan,nan,nan,nan,nan,nan,nan,nan,nan,nan,nan,nan,nan,nan,nan,nan,nan,nan,nan,nan,nan,nan,nan,nan,nan,nan,nan,nan,nan,nan,nan,nan,nan,nan,nan,nan,nan,nan,nan,nan,nan
-0.110907,-0.105907,-0.11355,-0.160907,-0.130907,-0.130907,-0.130907,-0.125636,-0.168407,-0.130907,-0.130907,-0.133352,-0.130907,-0.130907,-0.134502,-0.133689,-0.130907,-0.146236,-0.161764,-0.180907,-0.180907,-0.180907,-0.171554,-0.168086,-0.159007,-0.152617,-0.155511,-0.163826,-0.180907,-0.180907,-0.168092,-0.156008,-0.143264,-0.135105,-0.129182,-0.124036,-0.123345,-0.130907,-0.130907,-0.13805,-0.180907,-0.180907,-0.173985,-0.180907,-0.170377,-0.156357,-0.137919,-0.131606,-0.130907,-0.130907,-0.130907,-0.130907,-0.130907,-0.130907,-0.130907,-0.131862,-0.131653,-0.131426,-0.130907,-0.118404,-0.0773471,-0.076184,-0.0763159,-0.0770067,-0.105907,-0.0809073,-0.0807743,-0.0837905,-0.0889909,-0.0956642,-0.101037,-0.103168,-0.10407,-0.106668,nan,nan,nan,nan,nan,nan,0.0690927,0.0690927,0.0682913,0.065507,0.0604951,0.0538275,0.0465274,0.0190927,0.0190927,0.0190927,0.0190927,0.0190927,0.0102577,0.00515976,0.00708988,0.0292546,0.0418844,0.0190927,0.0463972,0.0477202,0.0433742,0.0346007,0.027082,0.0190927,0.0150158,0.00689442,-0.00240489,-0.0309073,-0.0190249,-0.0254747,-0.0298546,nan,0.518783,1.10711,1.11367,1.1118,1.09612,1.06909,1.09409,0.851296,0.80321,0.651963,0.618184,0.537311,0.384111,0.1867,-0.0309073,-0.0622355,-0.1012,-0.129108,-0.152997,-0.180907,-0.180907,-0.180907,-0.197574,-0.230907,-0.205907,-0.197574,-0.213776,-0.215337,-0.230907,-0.230907,-0.200907,-0.230907,-0.230907,-0.280907,-0.280907,-0.280907,-0.280907,-0.230907,-0.266631,-0.280907,-0.280907,-0.280907,-0.280907,-0.280907,-0.264241,-0.255907,-0.25797,-0.264991,-0.275084,-0.280907,-0.280907,-0.283582,-0.280907,-0.264241,-0.247574,-0.255907,-0.272574,-0.280907,-0.280907,-0.301976,-0.319908,-0.328455,-0.330646,-0.330905,-0.330907,-0.330907,-0.330907,nan,nan,nan,nan,nan,nan,nan,nan,nan,nan,nan,nan,nan,nan,nan,nan,nan,nan,nan,nan,nan,nan,nan,nan,nan,nan,nan,nan,nan,nan,nan,nan,nan,nan,nan,nan,nan,nan,nan,nan,nan,nan,nan,nan,nan,nan,nan,nan,nan,nan,nan,nan,nan,nan,nan,nan,nan,nan,nan,nan,nan,nan,nan,nan,nan,nan,nan,nan,nan,nan,nan,nan,nan,nan,nan,nan,nan,nan,nan,nan,nan,nan,nan,nan,nan,nan,nan,nan,nan,nan,nan,nan,nan,nan,nan,nan,nan,nan,nan,nan,nan,nan,nan,nan,nan,nan,nan,nan,nan,nan,nan,nan,nan,nan,nan,nan,nan,nan,nan,nan,nan
