0.0430784,0.0374277,0.042949,0.0835062,0.071537,0.0848871,0.291555,0.302481,0.397998,0.370585,0.348594,0.267581,0.243309,0.238387,0.137379,0.135161,0.071811,0.0567958,0.0521982,0.0559907,0.0538247,0.0771631,0.0754061,0.0789942,0.0970874,0.105856,0.0813892,0.0803109,0.0834076,0.0676214,0.0788688,0.0497648,0.0451525,0.0497565,0.0516883,0.0528447,0.0606599,0.0596361,0.10066,0.102613,0.112501,0.138149,0.111203,0.198534,0.207535,0.24733,0.185139,0.158683,0.135066,0.157746,0.163833,0.176555,0.136057,0.115992,0.138381,0.165516,0.158304,0.134451,0.126047,0.133936,0.180469,0.233894,0.259876,0.25046,0.246857,0.261176,0.259615,0.251656,0.338422,0.247472,0.193763,0.175731,0.155659,0.173804,0.130549,0.138474,0.127472,0.200506,0.144016,0.171293,0.195254,0.192384,0.136544,0.163778,0.179352,0.177518,0.159072,0.141728,0.102232,0.0951836,0.0733521,0.0636258,0.0640887,0.081274,0.0975786,0.0996705,0.119057,0.0891797,0.0798085,0.0881492,0.0898552,0.0588038,0.0828079,0.065626,0.0737604,0.066863,0.0797568,0.064731,0.0682696,0.0617254,0.0545443,0.0682121,0.0624453,0.07568,0.0601021,0.052435,0.0724163,0.0647294,0.0664527,0.111463,0.200752,0.441892,0.515543,0.513186,0.515275,0.44955,0.525203,0.398055,0.20589,0.0926392,0.0656833,nan,nan,nan,nan,nan,nan,nan,nan,nan,nan,nan,nan,nan,nan,nan,nan,nan,nan,nan,nan,nan,nan,nan,nan,nan,nan,nan,nan,nan,nan,nan,nan,nan,nan,nan,nan,nan,nan,nan,nan,nan,nan,nan,nan,nan,nan,nan,nan,nan,nan,nan,nan,nan,nan,nan,nan,nan,nan,nan,nan,nan,nan,nan,nan,nan,nan,nan,nan,nan,nan,nan,nan,nan,nan,nan,nan,nan,nan,nan,nan,nan,nan,nan,nan,nan,nan,nan,nan,nan,nan,nan,nan,nan,nan,nan,nan,nan,nan,nan,nan,nan,nan,nan,nan,nan,nan,nan,nan,nan,nan,nan,nan,nan,nan,nan,nan,nan,nan,nan,nan,nan,nan,nan,nan,nan,nan,nan,nan,nan,nan,nan,nan,nan,nan,nan,nan,nan,nan,nan,nan,nan,nan,nan,nan,nan,nan,nan,nan,nan,nan,nan,nan,nan,nan,nan,nan,nan,nan,nan,nan,nan,nan,nan,nan,nan,nan,nan,nan,nan
0.0229323,0.0307783,0.0459619,0.0432669,0.0815024,0.0894383,0.327154,0.328589,0.337154,0.265179,0.250208,0.33286,0.240656,0.301675,0.137077,0.133873,0.074712,0.060648,0.0784956,0.0762761,0.0602639,0.0660885,0.0671565,0.0857432,0.107713,0.0705458,0.190313,0.164939,0.160042,0.10313,0.0592325,0.0656524,0.0582423,0.0489423,0.0502703,0.0468947,0.0450127,0.0600412,0.0724976,0.0604455,0.0840277,0.0808564,0.114035,0.0929039,0.180714,0.253839,0.175428,0.207119,0.186816,0.175292,0.166576,0.137336,0.148647,0.186671,0.155713,0.152012,0.12885,0.110639,0.0904553,0.213515,0.244561,0.268189,0.225772,0.305644,0.232873,0.234154,0.241293,0.280534,0.287925,0.280693,0.215244,0.226127,0.225696,0.215387,0.170467,0.185085,0.185911,0.170824,0.131435,0.175007,0.148524,0.159721,0.201176,0.237916,0.216357,0.176661,0.126476,0.128649,0.0937322,0.105421,0.0920875,0.109307,0.0836618,0.0848588,0.114071,0.101605,0.0895863,0.0770013,0.0929737,0.0706136,0.0645714,0.0553306,0.0500793,0.0738126,0.047562,0.0409297,0.0487021,0.0437143,0.0458725,0.0356061,0.0404831,0.0551236,0.0440321,0.0474892,0.0373082,0.0449735,0.0439732,0.0394485,0.078616,0.123784,0.252386,0.426048,0.634606,0.507834,0.521873,0.470993,0.516157,0.387159,0.16313,0.0903048,0.0929998,nan,nan,nan,nan,nan,nan,nan,nan,nan,nan,nan,nan,nan,nan,nan,nan,nan,nan,nan,nan,nan,nan,nan,nan,nan,nan,nan,nan,nan,nan,nan,nan,nan,nan,nan,nan,nan,nan,nan,nan,nan,nan,nan,nan,nan,nan,nan,nan,nan,nan,nan,nan,nan,nan,nan,nan,nan,nan,nan,nan,nan,nan,nan,nan,nan,nan,nan,nan,nan,nan,nan,nan,nan,nan,nan,nan,nan,nan,nan,nan,nan,nan,nan,nan,nan,nan,nan,nan,nan,nan,nan,nan,nan,nan,nan,nan,nan,nan,nan,nan,nan,nan,nan,nan,nan,nan,nan,nan,nan,nan,nan,nan,nan,nan,nan,nan,nan,nan,nan,nan,nan,nan,nan,nan,nan,nan,nan,nan,nan,nan,nan,nan,nan,nan,nan,nan,nan,nan,nan,nan,nan,nan,nan,nan,nan,nan,nan,nan,nan,nan,nan,nan,nan,nan,nan,nan,nan,nan,nan,nan,nan,nan,nan,nan,nan,nan,nan,nan,nan
0.030711,0.0375319,0.0492052,0.0713734,0.111083,0.170257,0.1756,0.308158,0.34064,0.252801,0.247479,0.241926,0.231755,0.21051,0.136805,0.122205,0.0662669,0.0769486,0.0895621,0.0852923,0.0959139,0.0912917,0.0909565,0.0765919,0.0801738,0.168399,0.16644,0.164551,0.181243,0.15766,0.0742466,0.0859078,0.0446069,0.0586143,0.185685,0.183376,0.181686,0.0744272,0.062427,0.0899663,0.0833339,0.0862506,0.151522,0.153808,0.171383,0.125361,0.121562,0.121808,0.121797,0.12463,0.142021,0.141112,0.14181,0.158905,0.140157,0.123348,0.132207,0.118165,0.164029,0.158546,0.172451,0.227448,0.237726,0.218571,0.24671,0.242013,0.302622,0.298589,0.323256,0.229265,0.216534,0.243804,0.242662,0.19325,0.194201,0.185869,0.201378,0.182283,0.201307,0.175446,0.201877,0.189535,0.245825,0.2325,0.239482,0.19668,0.121548,0.134228,0.0951664,0.0928336,0.0956754,0.103992,0.0917921,0.103691,0.0892748,0.0752104,0.0858409,0.0695815,0.0857546,0.0739434,0.0570241,0.050454,0.0544961,0.0467363,0.0487492,0.045131,0.0359329,0.0359615,0.0272056,0.0402147,0.035968,0.035388,0.0414254,0.0414163,0.0277174,0.0316462,0.0367079,0.0491009,0.0548324,0.148381,0.277063,0.426978,0.594554,0.508478,0.641123,0.481696,0.493272,0.33868,0.211095,0.136166,0.147923,0.12625,nan,nan,nan,nan,nan,nan,nan,nan,nan,nan,nan,nan,nan,nan,nan,nan,nan,nan,nan,nan,nan,nan,nan,nan,nan,nan,nan,nan,nan,nan,nan,nan,nan,nan,nan,nan,nan,nan,nan,nan,nan,nan,nan,nan,nan,nan,nan,nan,nan,nan,nan,nan,nan,nan,nan,nan,nan,nan,nan,nan,nan,nan,nan,nan,nan,nan,nan,nan,nan,nan,nan,nan,nan,nan,nan,nan,nan,nan,nan,nan,nan,nan,nan,nan,nan,nan,nan,nan,nan,nan,nan,nan,nan,nan,nan,nan,nan,nan,nan,nan,nan,nan,nan,nan,nan,nan,nan,nan,nan,nan,nan,nan,nan,nan,nan,nan,nan,nan,nan,nan,nan,nan,nan,nan,nan,nan,nan,nan,nan,nan,nan,nan,nan,nan,nan,nan,nan,nan,nan,nan,nan,nan,nan,nan,nan,nan,nan,nan,nan,nan,nan,nan,nan,nan,nan,nan,nan,nan,nan,nan,nan,nan,nan,nan,nan,nan,nan,nan
0.0452135,0.0478031,0.06807,0.0736371,0.0665136,0.178004,0.175276,0.216158,0.189436,0.203022,0.237217,0.228411,0.244196,0.166766,0.164186,0.0851894,0.0805541,0.0994667,0.093522,0.0780933,0.0959271,0.0948685,0.101001,0.0791119,0.0731409,0.166403,0.19159,0.18909,0.115327,0.148362,0.0857906,0.0720807,0.0619825,0.186861,0.186804,0.191848,0.203,0.184558,0.0975683,0.163102,0.145864,0.167009,0.148903,0.144112,0.161548,0.137646,0.132772,0.119597,0.146559,0.154923,0.141179,0.251574,0.207939,0.207176,0.119263,0.134513,0.155597,0.115928,0.182286,0.168546,0.299614,0.223992,0.226265,0.284961,0.260603,0.260729,0.257658,0.282211,0.331702,0.242838,0.263191,0.208183,0.267075,0.182301,0.194375,0.149639,0.178759,0.174345,0.175496,0.217449,0.21168,0.295544,0.266648,0.363448,0.26111,0.280478,0.172203,0.171916,0.132959,0.133951,0.105637,0.100724,0.100738,0.10718,0.0880414,0.0866928,0.108088,0.065191,0.0598316,0.0514879,0.0790989,0.0681415,0.0559544,0.0438071,0.0567192,0.0430677,0.0489674,0.0440946,0.0393823,0.039872,0.0361545,0.0365109,0.036803,0.0303395,0.0272491,0.0396767,0.036777,0.0341608,0.0486594,0.144347,0.295434,0.429874,0.552291,0.486212,0.588775,0.48013,0.368354,0.302077,0.195209,0.168521,0.191823,0.252441,0.241784,0.24663,0.143253,0.0919993,nan,nan,nan,nan,nan,nan,nan,nan,nan,nan,nan,nan,nan,nan,nan,nan,nan,nan,nan,nan,nan,nan,nan,nan,nan,nan,nan,nan,0.0738437,0.0582147,0.0488719,0.0371379,0.0591833,0.063295,0.0929541,0.087036,0.0884762,0.0815608,nan,nan,nan,nan,nan,nan,nan,nan,nan,nan,nan,nan,nan,nan,nan,nan,nan,nan,nan,nan,nan,nan,nan,nan,nan,nan,nan,nan,nan,nan,nan,nan,nan,nan,nan,nan,nan,nan,nan,nan,nan,nan,nan,nan,nan,nan,nan,nan,nan,nan,nan,nan,nan,nan,nan,nan,nan,nan,nan,nan,nan,nan,nan,nan,nan,nan,nan,nan,nan,nan,nan,nan,nan,nan,nan,nan,nan,nan,nan,nan,nan,nan,nan,nan,nan,nan,nan,nan,nan,nan,nan,nan,nan,nan,nan,nan,nan,nan,nan,nan,nan,nan,nan,nan,nan,nan,nan,nan,nan,nan,nan,nan,nan,nan,nan,nan,nan,nan,nan,nan,nan,nan,nan,nan,nan,nan
0.0521838,0.054317,0.0725172,0.0680559,0.10244,0.152008,0.179021,0.164332,0.175875,0.175918,0.164615,0.143918,0.115704,0.112858,0.119016,0.09651,0.0983352,0.0870572,0.0989691,0.106272,0.0920393,0.0959597,0.0923113,0.0798517,0.122322,0.153889,0.17683,0.174848,0.145372,0.127602,0.0849482,0.0852144,0.0639852,0.185869,0.191136,0.221663,0.205804,0.20317,0.192811,0.195483,0.150084,0.199391,0.196176,0.160277,0.172479,0.149076,0.163175,0.111124,0.151804,0.189642,0.231904,0.248187,0.255502,0.17372,0.190066,0.129807,0.139818,0.111337,0.133641,0.167641,0.196171,0.206193,0.230684,0.241006,0.230819,0.236315,0.261947,0.263675,0.295387,0.297271,0.291155,0.251075,0.253183,0.236202,0.217134,0.204093,0.183076,0.151809,0.166816,0.164675,0.202977,0.289172,0.236153,0.365684,0.250877,0.242391,0.17461,0.191671,0.122044,0.132334,0.135302,0.144057,0.127033,0.11238,0.128875,0.0934693,0.0811278,0.0859771,0.0933775,0.0613927,0.0573961,0.047038,0.0514444,0.0517105,0.0528692,0.0558705,0.045381,0.0436053,0.0459973,0.0445249,0.0441785,0.0340004,0.0372018,0.0360208,0.0302321,0.0306088,0.0417807,0.0455898,0.0605159,0.132878,0.307213,0.464497,0.525765,0.459234,0.558979,0.494678,0.345161,0.331328,0.218935,0.197015,0.195031,0.235148,0.236007,0.129248,0.0889548,0.109144,0.0944816,nan,nan,nan,nan,nan,nan,nan,nan,nan,nan,nan,nan,nan,nan,nan,nan,nan,nan,nan,nan,nan,nan,nan,nan,nan,nan,0.0376795,0.0296117,0.0421254,0.0362199,0.0376584,0.0486903,0.0463089,0.040327,0.0767599,0.112371,1,1,0.202032,nan,nan,nan,nan,nan,nan,nan,nan,nan,nan,nan,nan,nan,nan,nan,nan,nan,nan,nan,nan,nan,nan,nan,nan,nan,nan,nan,nan,nan,nan,nan,nan,nan,nan,nan,nan,nan,nan,nan,nan,nan,nan,nan,nan,nan,nan,nan,nan,nan,nan,nan,nan,nan,nan,nan,nan,nan,nan,nan,nan,nan,nan,nan,nan,nan,nan,nan,nan,nan,nan,nan,nan,nan,nan,nan,nan,nan,nan,nan,nan,nan,nan,nan,nan,nan,nan,nan,nan,nan,nan,nan,nan,nan,nan,nan,nan,nan,nan,nan,nan,nan,nan,nan,nan,nan,nan,nan,nan,nan,nan,nan,nan,nan,nan,nan,nan,nan,nan,nan,nan,nan,nan,nan,nan
0.0714075,0.0657888,0.0814066,0.0883065,0.125212,0.101975,0.14233,0.138845,0.161669,0.149726,0.145342,0.145915,0.0991792,0.127713,0.12543,0.128564,0.102375,0.0991286,0.0962953,0.0981701,0.101739,0.0919928,0.0652245,0.141849,0.119754,0.124772,0.14036,0.131407,0.127283,0.0861462,0.0545381,0.0783852,0.0696577,0.205194,0.190607,0.215852,0.208092,0.23567,0.203887,0.197306,0.217142,0.236629,0.213185,0.183487,0.162088,0.151471,0.140767,0.175921,0.174294,0.164637,0.191409,0.172155,0.270204,0.180921,0.198024,0.15678,0.156643,0.135708,0.107736,0.18603,0.207943,0.322063,0.188444,0.195289,0.186617,0.202709,0.187164,0.245565,0.263224,0.346772,0.284925,0.278422,0.255907,0.216028,0.17463,0.186321,0.192201,0.180976,0.19029,0.204087,0.189094,0.270556,0.262303,0.311173,0.271537,0.232733,0.139583,0.134875,0.133847,0.145646,0.134479,0.12573,0.124023,0.142508,0.0999891,0.0878595,0.123278,0.0835136,0.0889839,0.0713244,0.0809423,0.0763751,0.0694722,0.0532749,0.0643391,0.0669707,0.0471893,0.0596681,0.0437751,0.0397401,0.042428,0.0421196,0.0316905,0.0360105,0.0271489,0.0349899,0.0374605,0.0293588,0.0610131,0.121469,0.276031,0.448333,0.513114,0.468711,0.487582,0.455668,0.341163,0.285324,0.253767,0.236986,0.190938,0.203508,0.172892,0.105453,0.0752063,0.110626,0.0991524,0.0931412,nan,nan,nan,nan,nan,nan,nan,nan,nan,nan,nan,nan,nan,nan,nan,nan,nan,nan,nan,nan,nan,nan,nan,nan,0.0402401,0.0401104,0.0315362,0.0382606,0.0386921,0.044872,0.0391904,0.0413799,0.0568479,1,1,1,1,1,1,nan,nan,nan,nan,nan,nan,nan,nan,nan,nan,nan,nan,nan,nan,nan,nan,nan,nan,nan,nan,nan,nan,nan,nan,nan,nan,nan,nan,nan,nan,nan,nan,nan,nan,nan,nan,nan,nan,nan,nan,nan,nan,nan,nan,nan,nan,nan,nan,nan,nan,nan,nan,nan,nan,nan,nan,nan,nan,nan,nan,nan,nan,nan,nan,nan,nan,nan,nan,nan,nan,nan,nan,nan,nan,nan,nan,nan,nan,nan,nan,nan,nan,nan,nan,nan,nan,nan,nan,nan,nan,nan,nan,nan,nan,nan,nan,nan,nan,nan,nan,nan,nan,nan,nan,nan,nan,nan,nan,nan,nan,nan,nan,nan,nan,nan,nan,nan,nan,nan,nan,nan,nan,nan
0.0684854,0.0558175,0.08896,0.0962181,0.0961493,0.117238,0.118976,0.135854,0.102071,0.13573,0.13434,0.139597,0.105433,0.156226,0.143849,0.141044,0.278424,0.273197,0.253147,0.0816027,0.079896,0.0877766,0.075431,0.135118,0.133429,0.127716,0.101532,0.127588,0.076542,0.0768064,0.0576879,0.0868527,0.068304,0.0623312,0.216954,0.20173,0.234311,0.088062,0.22501,0.206768,0.191193,0.241155,0.218385,0.157114,0.194718,0.175223,0.177949,0.160014,0.202093,0.191545,0.214325,0.193039,0.247359,0.192527,0.206965,0.131262,0.119008,0.158336,0.136252,0.167643,0.190999,0.198716,0.195309,0.229915,0.253841,0.202551,0.201108,0.245145,0.248145,0.335773,0.233416,0.216274,0.205615,0.186141,0.17176,0.186254,0.179519,0.160412,0.187364,0.212134,0.217756,0.203335,0.276668,0.258414,0.25952,0.206069,0.163083,0.181451,0.136281,0.149005,0.12702,0.12397,0.123607,0.0983147,0.088717,0.0975529,0.0795633,0.084416,0.0813024,0.0816633,0.0927495,0.0759114,0.0585504,0.088825,0.0561055,0.0549592,0.0501142,0.0467074,0.0513404,0.0460191,0.0474122,0.0429661,0.0331387,0.0400389,0.0347726,0.0347142,0.0208962,0.0226359,0.0457623,0.115681,0.278154,0.440337,0.454986,0.454506,0.459817,0.383312,0.324241,0.280326,0.239637,0.179809,0.196263,0.178692,0.115083,0.0538001,0.0788917,0.0770578,0.0963306,0.0923274,nan,nan,nan,nan,nan,nan,nan,nan,nan,nan,nan,nan,nan,nan,nan,nan,nan,nan,nan,nan,nan,nan,nan,nan,0.044137,0.0402755,0.0418669,0.0387352,0.04249,0.0401215,0.0382774,1,1,1,1,1,1,1,1,1,nan,nan,nan,nan,nan,nan,nan,nan,nan,nan,nan,nan,nan,nan,nan,nan,nan,nan,nan,nan,nan,nan,nan,nan,nan,nan,nan,nan,nan,nan,nan,nan,nan,nan,nan,nan,nan,nan,nan,nan,nan,nan,nan,nan,nan,nan,nan,nan,nan,nan,nan,nan,nan,nan,nan,nan,nan,nan,nan,nan,nan,nan,nan,nan,nan,nan,nan,nan,nan,nan,nan,nan,nan,nan,nan,nan,nan,nan,nan,nan,nan,nan,nan,nan,nan,nan,nan,nan,nan,nan,nan,nan,nan,nan,nan,nan,nan,nan,nan,nan,nan,nan,nan,nan,nan,nan,nan,nan,nan,nan,nan,nan,nan,nan,nan,nan,nan,nan,nan,nan,nan,nan
0.0652989,0.0735478,0.0649653,0.0951729,0.111622,0.131928,0.0969523,0.106453,0.136035,0.138601,0.112672,0.11107,0.105336,0.146585,0.15366,0.279353,0.272989,0.273831,0.271007,0.274893,0.0921957,0.0971551,0.0779031,0.128147,0.125301,0.101764,0.123769,0.111971,0.0733109,0.0708405,0.0908072,0.102675,0.100045,0.0911248,0.0690536,0.0727634,0.0897896,0.0890133,0.0905424,0.226913,0.246296,0.211132,0.164417,0.269051,0.265914,0.247445,0.208224,0.198957,0.231438,0.159445,0.197794,0.225814,0.209471,0.283971,0.189268,0.183037,0.12822,0.114158,0.119407,0.124832,0.168478,0.173177,0.176526,0.159655,0.152276,0.175663,0.152405,0.233476,0.225283,0.231398,0.215602,0.23191,0.230446,0.174514,0.147966,0.178403,0.143796,0.196879,0.194914,0.160137,0.190747,0.19934,0.193003,0.253383,0.192812,0.173531,0.162048,0.170893,0.13624,0.129415,0.143284,0.116342,0.0979251,0.106207,0.127307,0.130009,0.136339,0.133506,0.125898,0.107501,0.0906209,0.0976947,0.0963885,0.080696,0.0812918,0.0843545,0.0671617,0.075838,0.0553843,0.0563525,0.0475863,0.0452038,0.045503,0.0406093,0.0389736,0.0377565,0.0390374,0.0477697,0.0575105,0.115179,0.244401,0.376565,0.420112,0.397623,0.436003,0.355525,0.29072,0.260708,0.223944,0.178048,0.143755,0.119506,0.103083,0.0798973,0.0824535,0.0873884,0.0897932,0.0815537,0.104321,0.0920759,0.07021,0.0671179,0.0518943,0.0570832,0.0532903,0.0480983,0.044165,0.0486977,0.03602,0.0384504,0.0381634,0.0308851,0.0316878,0.0264012,0.0261609,0.0367587,0.0369805,0.0368389,0.0525651,0.0476658,0.0563958,0.0451711,0.0447728,0.0453614,0.0499297,0.0425679,0.0386436,0.0422658,0.369896,1,1,1,1,1,1,1,1,1,nan,nan,nan,nan,nan,nan,nan,nan,nan,nan,nan,nan,nan,nan,nan,nan,nan,nan,nan,nan,nan,nan,nan,nan,nan,nan,nan,nan,nan,nan,nan,nan,nan,nan,nan,nan,nan,nan,nan,nan,nan,nan,nan,nan,nan,nan,nan,nan,nan,nan,nan,nan,nan,nan,nan,nan,nan,nan,nan,nan,nan,nan,nan,nan,nan,nan,nan,nan,nan,nan,nan,nan,nan,nan,nan,nan,nan,nan,nan,nan,nan,nan,nan,nan,nan,nan,nan,nan,nan,nan,nan,nan,nan,nan,nan,nan,nan,nan,nan,nan,nan,nan,nan,nan,nan,nan,nan,nan,nan,nan,nan,nan,nan,nan,nan,nan,nan,nan,nan,nan,nan,nan
0.0745856,0.087061,0.0890549,0.0880712,0.0804128,0.101454,0.107084,0.136992,0.102976,0.0977946,0.115275,0.110365,0.150795,0.154787,0.15365,0.180801,0.275696,0.27347,0.244833,0.252018,0.0837758,0.109454,0.0969393,0.0719848,0.0954296,0.119725,0.123614,0.0649493,0.0713899,0.0870621,0.086358,0.0837677,0.0827465,0.105187,0.0978143,0.080272,0.0723624,0.0757578,0.133234,0.147586,0.177038,0.144903,0.314299,0.277133,0.250697,0.27096,0.25172,0.197808,0.195784,0.171097,0.19309,0.216648,0.190155,0.268787,0.176407,0.158477,0.135259,0.183481,0.160039,0.138009,0.190327,0.199495,0.205849,0.170896,0.164179,0.157119,0.130274,0.124696,0.224199,0.231435,0.2316,0.182644,0.188216,0.183698,0.219282,0.142543,0.167467,0.146491,0.162953,0.144929,0.17173,0.159542,0.150702,0.157881,0.154419,0.142249,0.1376,0.133388,0.131062,0.115415,0.122446,0.116713,0.118208,0.126123,0.137718,0.113305,0.142218,0.117821,0.115528,0.11934,0.10124,0.0988004,0.0820959,0.0799909,0.0668761,0.0741357,0.0694411,0.0703583,0.0786266,0.0723277,0.0711903,0.0653851,0.057879,0.0550116,0.0519953,0.0561146,0.0502965,0.0451179,0.0619744,0.118908,0.240623,0.379336,0.398749,0.371965,0.421475,0.333899,0.220805,0.153751,0.127913,0.122054,0.130945,0.123043,0.0947164,0.0998439,0.0960631,0.0957097,0.0918764,0.0780974,0.0729655,0.0755681,0.0765362,0.0664989,0.0601321,0.0561097,0.0608684,0.047707,0.0575725,0.0416125,0.042371,0.0398786,0.0413097,0.0378118,0.0342308,0.0309616,0.0341515,0.03376,0.0301144,0.0439815,0.0441834,0.0454494,0.0475381,0.0423431,0.0458268,0.0469668,0.0463044,0.0515276,0.04372,0.044465,0.275322,1,1,1,1,1,1,1,1,1,1,nan,nan,nan,nan,nan,nan,nan,nan,nan,nan,nan,nan,nan,nan,nan,nan,nan,nan,nan,nan,nan,nan,nan,nan,nan,nan,nan,nan,nan,nan,nan,nan,nan,nan,nan,nan,nan,nan,nan,nan,nan,nan,nan,nan,nan,nan,nan,nan,nan,nan,nan,nan,nan,nan,nan,nan,nan,nan,nan,nan,nan,nan,nan,nan,nan,nan,nan,nan,nan,nan,nan,nan,nan,nan,nan,nan,nan,nan,nan,nan,nan,nan,nan,nan,nan,nan,nan,nan,nan,nan,nan,nan,nan,nan,nan,nan,nan,nan,nan,nan,nan,nan,nan,nan,nan,nan,nan,nan,nan,nan,nan,nan,nan,nan,nan,nan,nan,nan,nan,nan,nan
0.0927293,0.0845243,0.0842676,0.089491,0.0909117,0.109909,0.110376,0.133712,0.0989762,0.127067,0.112911,0.113436,0.101352,0.158266,0.148773,0.283219,0.257649,0.252375,0.279394,0.261207,0.10721,0.10135,0.076966,0.0939613,0.0739933,0.0732264,0.0772315,0.0782073,0.0762401,0.0879456,0.0908658,0.0890997,0.0841098,0.0767762,0.113389,0.11154,0.0696933,0.120204,0.131727,0.167053,0.157752,0.209024,0.255134,0.265555,0.320758,0.239063,0.274297,0.206938,0.184797,0.209752,0.16109,0.162672,0.279907,0.210397,0.333787,0.203187,0.164345,0.171917,0.156006,0.180175,0.197182,0.195256,0.179537,0.206892,0.142219,0.150351,0.133002,0.120175,0.130718,0.126547,0.164855,0.176205,0.193607,0.1708,0.200527,0.169764,0.145726,0.161348,0.156329,0.155342,0.156312,0.175485,0.153462,0.155871,0.146204,0.129741,0.131415,0.137392,0.126483,0.146602,0.143622,0.159963,0.133232,0.13737,0.154527,0.150477,0.15043,0.140113,0.143044,0.145893,0.110806,0.0875322,0.0909217,0.0797472,0.0676708,0.0807897,0.0658633,0.081218,0.0721962,0.0665377,0.0614415,0.058466,0.0553731,0.0545336,0.0579125,0.0495967,0.0508334,0.0561999,0.0701259,0.136006,0.208888,0.362684,0.373562,0.39354,0.424702,0.327652,0.228949,0.151933,0.158605,0.138931,0.132525,0.102193,0.107751,0.0962612,0.0964729,0.0758168,0.0659308,0.0895736,0.0803102,0.0773869,0.0682093,0.0721571,0.0608599,0.0571971,0.0515736,0.0548312,0.047585,0.0445622,0.0422377,0.0405226,0.0386878,0.0374237,0.0368401,0.0346149,0.0352797,0.03777,0.0443768,0.0408053,0.040356,0.0543745,0.0452646,0.0545966,0.0404117,0.039783,0.0350986,0.0450553,0.0440128,0.0445159,1,1,1,1,1,1,1,1,1,1,1,nan,nan,nan,nan,nan,nan,nan,nan,nan,nan,nan,nan,nan,nan,nan,nan,nan,nan,nan,nan,nan,nan,nan,nan,nan,nan,nan,nan,nan,nan,nan,nan,nan,nan,nan,nan,nan,nan,nan,nan,nan,nan,nan,nan,nan,nan,nan,nan,nan,nan,nan,nan,nan,nan,nan,nan,nan,nan,nan,nan,nan,nan,nan,nan,nan,nan,nan,nan,nan,nan,nan,nan,nan,nan,nan,nan,nan,nan,nan,nan,nan,nan,nan,nan,nan,nan,nan,nan,nan,nan,nan,nan,nan,nan,nan,nan,nan,nan,nan,nan,nan,nan,nan,nan,nan,nan,nan,nan,nan,nan,nan,nan,nan,nan,nan,nan,nan,nan,nan,nan,nan
0.147066,0.139356,0.0892775,0.100348,0.107108,0.103386,0.122521,0.130452,0.120647,0.104514,0.0852423,0.0918407,0.0974144,0.0962861,0.164281,0.167149,0.289667,0.27403,0.281838,0.101114,0.11464,0.10643,0.104134,0.0974221,0.114581,0.0978652,0.0754957,0.0851657,0.0956828,0.0872828,0.0980995,0.0945412,0.0910929,0.115312,0.096149,0.0947093,0.0965569,0.118227,0.13483,0.143764,0.186847,0.220665,0.236537,0.276065,0.338482,0.238423,0.243328,0.161008,0.200611,0.199518,0.172222,0.265216,0.254776,0.269367,0.26305,0.257766,0.233762,0.233131,0.175528,0.155641,0.137272,0.211747,0.164421,0.146748,0.135337,0.115856,0.151129,0.119934,0.138504,0.152448,0.137761,0.130314,0.142607,0.193839,0.152098,0.148785,0.159,0.130115,0.146331,0.132286,0.164571,0.113315,0.124916,0.126618,0.10625,0.114931,0.108377,0.136761,0.101959,0.128308,0.134901,0.116219,0.108801,0.121713,0.108505,0.123887,0.12386,0.10945,0.111489,0.108598,0.103523,0.0958725,0.0773852,0.0652824,0.0814129,0.061193,0.061207,0.0708137,0.0593616,0.0621958,0.0553444,0.0533983,0.051091,0.0580941,0.0525131,0.0443697,0.0431116,0.0389611,0.055665,0.124853,0.254096,0.389678,0.425321,0.386366,0.411858,0.324142,0.224586,0.172312,0.149448,0.130184,0.110962,0.12217,0.117869,0.0954828,0.0777875,0.0745434,0.0702258,0.0775356,0.0725405,0.0715434,0.0616599,0.0594411,0.0548928,0.0600237,0.0485183,0.0575476,0.0510842,0.0461639,0.0455703,0.0397763,0.0390279,0.0394484,0.0406911,0.034195,0.0466909,0.0400638,0.0462755,0.0497278,0.0513867,0.0471439,0.04941,0.0460248,0.0564245,0.0467129,0.0579143,0.0479238,0.0484525,0.216452,0.414342,1,1,1,1,1,1,1,1,1,1,nan,nan,nan,nan,nan,nan,nan,nan,nan,nan,nan,nan,nan,nan,nan,nan,nan,nan,nan,nan,nan,nan,nan,nan,nan,nan,nan,nan,nan,nan,nan,nan,nan,nan,nan,nan,nan,nan,nan,nan,nan,nan,nan,nan,nan,nan,nan,nan,nan,nan,nan,nan,nan,nan,nan,nan,nan,nan,nan,nan,nan,nan,nan,nan,nan,nan,nan,nan,nan,nan,nan,nan,nan,nan,nan,nan,nan,nan,nan,nan,nan,nan,nan,nan,nan,nan,nan,nan,nan,nan,nan,nan,nan,nan,nan,nan,nan,nan,nan,nan,nan,nan,nan,nan,nan,nan,nan,nan,nan,nan,nan,nan,nan,nan,nan,nan,nan,nan,nan,nan,nan
0.139407,0.110833,0.132032,0.12949,0.111382,0.0965432,0.10826,0.101694,0.0990398,0.109484,0.109388,0.0948004,0.111519,0.102088,0.0964042,0.100406,0.100159,0.105412,0.111976,0.107919,0.118252,0.113002,0.100932,0.0999034,0.0955566,0.108153,0.106539,0.0639376,0.0975609,0.0993116,0.119513,0.101936,0.100465,0.098756,0.128486,0.103923,0.101605,0.13423,0.132147,0.139841,0.154869,0.236378,0.218821,0.26908,0.266907,0.212575,0.225827,0.193379,0.217844,0.203237,0.21556,0.254762,0.256765,0.353497,0.236237,0.282654,0.201565,0.214642,0.166607,0.172939,0.205708,0.190074,0.162193,0.154079,0.131949,0.116206,0.111573,0.10885,0.112327,0.104651,0.128838,0.130186,0.158532,0.191146,0.191382,0.146185,0.141788,0.132557,0.120249,0.119457,0.12089,0.096975,0.0980492,0.0890656,0.081579,0.0889298,0.101855,0.121179,0.106209,0.104692,0.149811,0.110798,0.120489,0.135603,0.116928,0.150564,0.126007,0.107613,0.14339,0.132261,0.113254,0.0990465,0.0722353,0.0829341,0.0573955,0.067042,0.0547419,0.0609499,0.0534381,0.0471434,0.0513349,0.0502759,0.0561694,0.043648,0.0426407,0.0362899,0.0383272,0.0374066,0.0494175,0.137445,0.262921,0.411855,0.417082,0.397986,0.439392,0.32069,0.209306,0.185676,0.145254,0.137512,0.139629,0.124322,0.0937066,0.065757,0.0511455,0.0584246,0.0521774,0.0522627,0.0667937,0.0631244,0.0591494,0.0513513,0.045352,0.0440924,0.0486397,0.0424459,0.0466621,0.043436,0.0421491,0.0481689,0.0413749,0.0370381,0.0462457,0.0402059,0.0516588,0.0467658,0.0528729,0.0551752,0.0499297,0.0571076,0.0531904,0.0562499,0.0537576,0.0505436,0.0404879,0.0385221,0.0408423,0.0346232,0.236972,1,1,1,1,1,1,1,1,1,1,nan,nan,nan,nan,nan,nan,nan,nan,nan,nan,nan,nan,nan,nan,nan,nan,nan,nan,nan,nan,nan,nan,nan,nan,nan,nan,nan,nan,nan,nan,nan,nan,nan,nan,nan,nan,nan,nan,nan,nan,nan,nan,nan,nan,nan,nan,nan,nan,nan,nan,nan,nan,nan,nan,nan,nan,nan,nan,nan,nan,nan,nan,nan,nan,nan,nan,nan,nan,nan,nan,nan,nan,nan,nan,nan,nan,nan,nan,nan,nan,nan,nan,nan,nan,nan,nan,nan,nan,nan,nan,nan,nan,nan,nan,nan,nan,nan,nan,nan,nan,nan,nan,nan,nan,nan,nan,nan,nan,nan,nan,nan,nan,nan,nan,nan,nan,nan,nan,nan,nan,nan
0.169963,0.146864,0.144302,0.109138,0.140461,0.105541,0.110757,0.122048,0.118632,0.084075,0.101554,0.0750394,0.0850161,0.0708297,0.116334,0.12014,0.12194,0.115553,0.13385,0.10811,0.121263,0.0870293,0.110136,0.117808,0.139707,0.118151,0.117391,0.0780995,0.119098,0.104111,0.102707,0.105601,0.102483,0.118251,0.116069,0.111308,0.106576,0.0857519,0.152678,0.143906,0.196169,0.259172,0.210907,0.264675,0.210349,0.199772,0.172185,0.171214,0.206294,0.200454,0.207352,0.281927,0.299024,0.292512,0.288366,0.246307,0.210808,0.207022,0.162523,0.189299,0.191355,0.14936,0.187204,0.147938,0.165832,0.120559,0.127744,0.106411,0.123771,0.148981,0.116346,0.152536,0.141571,0.159551,0.132904,0.128499,0.164523,0.124073,0.15863,0.129935,0.124538,0.102411,0.101896,0.0933478,0.0721389,0.0833221,0.102902,0.0857109,0.087632,0.0807775,0.0848618,0.071027,0.0795034,0.0764797,0.0809216,0.0928784,0.0711283,0.0884917,0.0966181,0.0828422,0.0970569,0.0887481,0.0593258,0.065376,0.0447604,0.0602372,0.0454825,0.0588612,0.0429339,0.0481206,0.0425944,0.0385554,0.0446767,0.0381453,0.0378465,0.0303018,0.034177,0.0274861,0.0571231,0.142258,0.28719,0.435142,0.482436,0.418018,0.466125,0.347053,0.207719,0.159767,0.1472,0.113844,0.106125,0.0964605,0.066291,0.0629426,0.0590907,0.0541645,0.0540257,0.051782,0.0469531,0.0453688,0.0423587,0.0425116,0.0460771,0.0358078,0.0410949,0.0396439,0.0444806,0.048338,0.052773,0.0440932,0.0489291,0.0464962,0.0564623,0.0556583,0.0543394,0.0567358,0.0555006,0.0582034,0.0524746,0.049493,0.0607246,0.0600852,0.0543835,0.0612111,0.0499606,0.0505195,0.0363803,0.0372563,0.213993,1,1,1,1,1,1,1,1,1,1,nan,nan,nan,nan,nan,nan,nan,nan,nan,nan,nan,nan,nan,nan,nan,nan,nan,nan,nan,nan,nan,nan,nan,nan,nan,nan,nan,nan,nan,nan,nan,nan,nan,nan,nan,nan,nan,nan,nan,nan,nan,nan,nan,nan,nan,nan,nan,nan,nan,nan,nan,nan,nan,nan,nan,nan,nan,nan,nan,nan,nan,nan,nan,nan,nan,nan,nan,nan,nan,nan,nan,nan,nan,nan,nan,nan,nan,nan,nan,nan,nan,nan,nan,nan,nan,nan,nan,nan,nan,nan,nan,nan,nan,nan,nan,nan,nan,nan,nan,nan,nan,nan,nan,nan,nan,nan,nan,nan,nan,nan,nan,nan,nan,nan,nan,nan,nan,nan,nan,nan,nan
0.163278,0.119523,0.163055,0.115529,0.114095,0.0674129,0.0938689,0.0720603,0.0687282,0.0891273,0.0773343,0.0774723,0.0779944,0.0802525,0.114969,0.101158,0.0936993,0.111915,0.0773722,0.0763391,0.0869086,0.0921437,0.141215,0.14083,0.156295,0.107865,0.1363,0.0959033,0.124032,0.124147,0.124964,0.126895,0.10006,0.136414,0.133511,0.103055,0.0949513,0.0960453,0.131495,0.158229,0.191781,0.217316,0.25657,0.200967,0.203707,0.193796,0.225263,0.265685,0.238158,0.251111,0.184602,0.207192,0.298941,0.295358,0.307992,0.206141,0.210386,0.223233,0.15332,0.181866,0.136644,0.136226,0.202654,0.146825,0.164195,0.172706,0.138714,0.102362,0.104241,0.119946,0.109385,0.125069,0.119618,0.121718,0.124819,0.119356,0.119161,0.118983,0.117256,0.104857,0.105596,0.0847269,0.106341,0.0703656,0.0606516,0.0744291,0.0742157,0.0657447,0.0854409,0.0716253,0.0604375,0.0853664,0.0660668,0.0505905,0.065045,0.0673745,0.089743,0.0793594,0.0777779,0.0927126,0.071727,0.0645881,0.0479586,0.0417008,0.0458522,0.0405615,0.0535591,0.0468326,0.0476121,0.0385987,0.0431178,0.0434316,0.0337527,0.036018,0.0306872,0.0417012,0.0377832,0.0361734,0.0629809,0.153859,0.32029,0.448137,0.457487,0.439322,0.489172,0.32478,0.190699,0.12513,0.0937453,0.0973278,0.0753339,0.0658145,0.0535987,0.0540902,0.0515516,0.0489964,0.0524347,0.0448381,0.0438186,0.0420223,0.0415822,0.0380027,0.0416355,0.0456783,0.041612,0.041119,0.046295,0.053198,0.0614892,0.0631452,0.0480746,0.0548901,0.0592013,0.0581847,0.0584147,0.0587396,0.054532,0.0498522,0.0531983,0.0533464,0.0453528,0.0562046,0.0497794,0.0581435,0.0455733,0.045218,0.0668609,0.0640437,0.250348,1,1,1,1,1,1,1,1,1,1,nan,nan,nan,nan,nan,nan,nan,nan,nan,nan,nan,nan,nan,nan,nan,nan,nan,nan,nan,nan,nan,nan,nan,nan,nan,nan,nan,nan,nan,nan,nan,nan,nan,nan,nan,nan,nan,nan,nan,nan,nan,nan,nan,nan,nan,nan,nan,nan,nan,nan,nan,nan,nan,nan,nan,nan,nan,nan,nan,nan,nan,nan,nan,nan,nan,nan,nan,nan,nan,nan,nan,nan,nan,nan,nan,nan,nan,nan,nan,nan,nan,nan,nan,nan,nan,nan,nan,nan,nan,nan,nan,nan,nan,nan,nan,nan,nan,nan,nan,nan,nan,nan,nan,nan,nan,nan,nan,nan,nan,nan,nan,nan,nan,nan,nan,nan,nan,nan,nan,nan,nan
0.182732,0.176634,0.105612,0.116081,0.0923248,0.0696791,0.0697507,0.0781573,0.0749744,0.0744772,0.0753277,0.0755638,0.112072,0.106671,0.0983233,0.106481,0.112728,0.0985685,0.0885033,0.0835034,0.0867821,0.0806212,0.102842,0.160517,0.162078,0.261252,0.273242,0.273012,0.127495,0.122809,0.122623,0.114695,0.0929352,0.089959,0.0864107,0.0598336,0.0944512,0.103588,0.104779,0.141472,0.190985,0.197187,0.20552,0.234889,0.230482,0.301278,0.3576,0.291704,0.211053,0.239243,0.312483,0.158893,0.173222,0.20186,0.215071,0.252766,0.259831,0.175579,0.194925,0.18,0.167015,0.129961,0.138927,0.175976,0.19091,0.134966,0.130145,0.0939281,0.0977031,0.100538,0.135956,0.108145,0.115365,0.0948524,0.0927541,0.119814,0.0885559,0.120717,0.0964364,0.0926227,0.0798911,0.105429,0.0907166,0.0738071,0.0886141,0.075833,0.0668211,0.0806722,0.0739129,0.0514144,0.0750112,0.0663748,0.0496148,0.0465514,0.0439217,0.0661965,0.0423059,0.0497572,0.0676085,0.0531792,0.0632094,0.0557705,0.0410529,0.0491547,0.059451,0.0442306,0.049105,0.0401211,0.041093,0.0372534,0.0490199,0.0385884,0.0433167,0.0429786,0.0365731,0.0352148,0.0332876,0.0422512,0.0688878,0.159421,0.323324,0.452151,0.497362,0.449774,0.478434,0.355586,0.195034,0.0934212,0.0713319,0.0743033,0.0541746,0.0459805,0.0498516,0.0512805,0.0560505,0.0487014,0.048898,0.054495,0.042312,0.0450752,0.042269,0.0511135,0.0385556,0.0437259,0.0471498,0.0558043,0.0596224,0.0637757,0.0635486,0.0624977,0.0570802,0.0554655,0.0671799,0.0651885,0.0764708,0.0586748,0.0567206,0.0547055,0.0558553,0.0576153,0.0604497,0.0606565,0.056231,0.0478378,0.0510298,0.062384,0.0693662,0.0784837,0.152288,0.321762,0.380718,1,1,1,1,1,1,1,1,nan,nan,nan,nan,nan,nan,nan,nan,nan,nan,nan,nan,nan,nan,nan,nan,nan,nan,nan,nan,nan,nan,nan,nan,nan,nan,nan,nan,nan,nan,nan,nan,nan,nan,nan,nan,nan,nan,nan,nan,nan,nan,nan,nan,nan,nan,nan,nan,nan,nan,nan,nan,nan,nan,nan,nan,nan,nan,nan,nan,nan,nan,nan,nan,nan,nan,nan,nan,nan,nan,nan,nan,nan,nan,nan,nan,nan,nan,nan,nan,nan,nan,nan,nan,nan,nan,nan,nan,nan,nan,nan,nan,nan,nan,nan,nan,nan,nan,nan,nan,nan,nan,nan,nan,nan,nan,nan,nan,nan,nan,nan,nan,nan,nan,nan,nan,nan,nan,nan,nan,nan
0.137198,0.115467,0.122447,0.102111,0.0920475,0.0857955,0.0827276,0.092313,0.0906394,0.0895627,0.0947258,0.0964548,0.0995521,0.11961,0.116472,0.120075,0.100722,0.0754992,0.0712171,0.0746697,0.0823858,0.0842541,0.0981229,0.0989377,0.283543,0.254966,0.277979,0.271741,0.270391,0.131512,0.0929737,0.0746661,0.081883,0.0821547,0.0865985,0.0567596,0.0729195,0.117344,0.116937,0.143062,0.166998,0.178409,0.273715,0.219424,0.359043,0.269034,0.36831,0.276799,0.343634,0.262052,0.231853,0.194087,0.21283,0.198285,0.197351,0.235391,0.196886,0.184433,0.171593,0.156281,0.161897,0.143457,0.157837,0.129886,0.124563,0.13979,0.112835,0.117943,0.119885,0.124203,0.124821,0.0959393,0.106171,0.0936693,0.088963,0.110107,0.0887043,0.0990882,0.0883437,0.0968097,0.095271,0.100029,0.0897737,0.0903268,0.0653073,0.0728637,0.0597232,0.0679015,0.0519355,0.0644301,0.0582397,0.0461934,0.060209,0.0471393,0.0331142,0.0365175,0.0542952,0.057959,0.0635085,0.0659816,0.0592535,0.0586606,0.0444424,0.0463591,0.0432641,0.0475156,0.0492784,0.049612,0.0418084,0.0421727,0.0366896,0.0392083,0.0393981,0.0391962,0.039921,0.0382811,0.0365513,0.0372837,0.0681352,0.163452,0.351221,0.466861,0.495937,0.446102,0.509968,0.373466,0.17613,0.0970704,0.0470747,0.0473426,0.0433791,0.0439582,0.0597659,0.0475764,0.0556456,0.0574916,0.0572251,0.0653567,0.0528651,0.0570009,0.0478797,0.0435304,0.0483494,0.0505118,0.0510615,0.0502478,0.0509771,0.0536868,0.0612032,0.0551513,0.0628491,0.0653966,0.0786679,0.0616484,0.0611717,0.0584648,0.0640152,0.0516832,0.0570973,0.0466273,0.0510271,0.0539042,0.0575222,0.0642356,0.0725212,0.0829692,0.12962,0.185986,0.378388,0.399876,0.422378,0.514466,1,1,0.656248,0.645812,1,1,1,nan,nan,nan,nan,nan,nan,nan,nan,nan,nan,nan,nan,nan,nan,nan,nan,nan,nan,nan,nan,nan,nan,nan,nan,nan,nan,nan,nan,nan,nan,nan,nan,nan,nan,nan,nan,nan,nan,nan,nan,nan,nan,nan,nan,nan,nan,nan,nan,nan,nan,nan,nan,nan,nan,nan,nan,nan,nan,nan,nan,nan,nan,nan,nan,nan,nan,nan,nan,nan,nan,nan,nan,nan,nan,nan,nan,nan,nan,nan,nan,nan,nan,nan,nan,nan,nan,nan,nan,nan,nan,nan,nan,nan,nan,nan,nan,nan,nan,nan,nan,nan,nan,nan,nan,nan,nan,nan,nan,nan,nan,nan,nan,nan,nan,nan,nan,nan,nan,nan,nan,nan
0.134398,0.131573,0.118602,0.107099,0.0738838,0.0897369,0.0833611,0.108716,0.0937062,0.107055,0.0900968,0.106626,0.120744,0.107672,0.110503,0.0993304,0.0629141,0.0563832,0.0544553,0.0536395,0.0614269,0.0980091,0.0898993,0.126568,0.283852,0.290274,0.305386,0.27821,0.266488,0.0899704,0.0900022,0.0926244,0.0658386,0.077072,0.0615346,0.0545813,0.101522,0.119005,0.108171,0.129222,0.222266,0.253844,0.214451,0.177572,0.263097,0.277143,0.372242,0.273841,0.282696,0.210806,0.229686,0.142075,0.13784,0.178007,0.200363,0.166961,0.177744,0.204522,0.204145,0.172229,0.186218,0.134055,0.171206,0.129779,0.118775,0.107688,0.105697,0.117406,0.136493,0.106647,0.12456,0.123379,0.122808,0.0773774,0.106657,0.0952287,0.112601,0.09064,0.117085,0.0726089,0.102138,0.0923494,0.0737032,0.0988668,0.0580024,0.0639254,0.0610473,0.047877,0.0578691,0.0545962,0.0603863,0.0745185,0.042083,0.0618197,0.049544,0.0445935,0.0382101,0.0349747,0.0482213,0.0611206,0.0517045,0.0526244,0.0480391,0.0472919,0.0564861,0.0578222,0.0377852,0.0502168,0.0380658,0.0428083,0.0390234,0.0465636,0.0434148,0.0481619,0.0347858,0.0358511,0.0394235,0.0372346,0.0738716,0.157638,0.3609,0.465366,0.46885,0.464776,0.487289,0.396161,0.187305,0.0765914,0.0417176,0.0485322,0.0457489,0.0459726,0.0564764,0.0547302,0.0646555,0.055609,0.0655731,0.0581672,0.0551651,0.0552838,0.0504212,0.0604899,0.0533055,0.0522191,0.0607982,0.0568728,0.0584965,0.06089,0.0650003,0.0465495,0.0628756,0.0596823,0.0689671,0.0759541,0.0823528,0.0751577,0.0715993,0.0825319,0.0958382,0.116083,0.12489,0.136916,0.142391,0.116841,0.144473,0.172315,0.222379,0.373991,0.407146,0.422437,0.45492,0.518095,0.574494,0.640256,0.651488,0.583693,1,0.478582,0.125352,nan,nan,nan,nan,nan,nan,nan,nan,nan,nan,nan,nan,nan,nan,nan,nan,nan,nan,nan,nan,nan,nan,nan,nan,nan,nan,nan,nan,nan,nan,nan,nan,nan,nan,nan,nan,nan,nan,nan,nan,nan,nan,nan,nan,nan,nan,nan,nan,nan,nan,nan,nan,nan,nan,nan,nan,nan,nan,nan,nan,nan,nan,nan,nan,nan,nan,nan,nan,nan,nan,nan,nan,nan,nan,nan,nan,nan,nan,nan,nan,nan,nan,nan,nan,nan,nan,nan,nan,nan,nan,nan,nan,nan,nan,nan,nan,nan,nan,nan,nan,nan,nan,nan,nan,nan,nan,nan,nan,nan,nan,nan,nan,nan,nan,nan,nan,nan,nan,nan,nan,nan
0.13378,0.136515,0.125246,0.125693,0.0808038,0.0946156,0.110888,0.0982763,0.0950745,0.108,0.120418,0.113523,0.108337,0.107498,0.0826856,0.0814461,0.0693504,0.0653566,0.0323263,0.0288058,0.0396181,0.0519595,0.0925938,0.0907111,0.274611,0.297096,0.262093,0.267424,0.26822,0.0921685,0.0877821,0.0616849,0.0690068,0.0753562,0.0754451,0.0812246,0.0934135,0.130857,0.169341,0.184154,0.167286,0.183792,0.213843,0.182687,0.309022,0.314477,0.273007,0.273129,0.289127,0.258909,0.198008,0.172752,0.162045,0.140521,0.179254,0.175205,0.238939,0.176157,0.229899,0.224088,0.254923,0.167273,0.168237,0.168928,0.099882,0.144154,0.110063,0.146977,0.0946013,0.0890306,0.0799012,0.100425,0.120336,0.114887,0.0940435,0.0834236,0.0918104,0.0775079,0.0836031,0.0949529,0.0782493,0.0695338,0.0595694,0.0690613,0.0618521,0.0500264,0.0446145,0.0484652,0.0406681,0.0563916,0.0541559,0.0465255,0.0555923,0.0452979,0.038745,0.0333544,0.0399277,0.0367749,0.0570779,0.0412879,0.0652931,0.0466992,0.0627573,0.0396141,0.0393073,0.0451463,0.0523812,0.0583743,0.0486129,0.0509617,0.0401756,0.0414649,0.0396836,0.0378134,0.036659,0.0392503,0.0322473,0.0351751,0.0622828,0.154684,0.36953,0.467685,0.472895,0.432333,0.475946,0.386841,0.176521,0.0894906,0.0592772,0.0460843,0.051254,0.0558979,0.0634383,0.0617956,0.0584504,0.0660192,0.064116,0.0552871,0.0655554,0.056189,0.0502266,0.0569305,0.0562768,0.0660572,0.065828,0.0693091,0.0688322,0.0545456,0.0575206,0.0480358,0.0503214,0.0895177,0.0914575,0.0849572,0.0809786,0.0877977,0.0852821,0.0863223,0.111752,0.115566,0.116654,0.143993,0.135828,0.134332,0.21273,0.241189,0.281332,0.36162,0.357779,0.45037,0.387541,0.562288,0.618678,0.601902,0.750015,1,1,1,1,nan,nan,nan,nan,nan,nan,nan,nan,nan,nan,nan,nan,nan,nan,nan,nan,nan,nan,nan,nan,nan,nan,nan,nan,nan,nan,nan,nan,nan,nan,nan,nan,nan,nan,nan,nan,nan,nan,nan,nan,nan,nan,nan,nan,nan,nan,nan,nan,nan,nan,nan,nan,nan,nan,nan,nan,nan,nan,nan,nan,nan,nan,nan,nan,nan,nan,nan,nan,nan,nan,nan,nan,nan,nan,nan,nan,nan,nan,nan,nan,nan,nan,nan,nan,nan,nan,nan,nan,nan,nan,nan,nan,nan,nan,nan,nan,nan,nan,nan,nan,nan,nan,nan,nan,nan,nan,nan,nan,nan,nan,nan,nan,nan,nan,nan,nan,nan,nan,nan,nan,nan
0.13183,0.132646,0.135573,0.136207,0.110998,0.108501,0.104805,0.105314,0.12818,0.124347,0.122238,0.105483,0.106465,0.101771,0.102222,0.0710557,0.061954,0.0574878,0.0513875,0.0491949,0.0242879,0.0312803,0.0975157,0.0946304,0.0998722,0.299382,0.275418,0.271189,0.0852055,0.0990439,0.0992946,0.11173,0.12202,0.125912,0.0791572,0.0801296,0.124257,0.164471,0.129116,0.128072,0.143094,0.164044,0.19375,0.174344,0.202884,0.290824,0.288969,0.294089,0.20541,0.202481,0.243681,0.186191,0.165846,0.146264,0.167869,0.247933,0.210504,0.209939,0.308687,0.209718,0.188625,0.167533,0.135974,0.152755,0.111006,0.108671,0.117834,0.115257,0.102874,0.0970611,0.118546,0.11035,0.107957,0.0961534,0.0876505,0.0930137,0.101941,0.094087,0.0838164,0.0927579,0.0646566,0.0749492,0.0642208,0.049481,0.0579336,0.0602669,0.0409559,0.0533746,0.0518777,0.0562011,0.056288,0.0728961,0.0545033,0.0461369,0.0502086,0.0453746,0.0471743,0.0366958,0.0501712,0.0475033,0.0646385,0.0482773,0.0671246,0.0477387,0.0437648,0.040879,0.0461408,0.0381834,0.0450202,0.0437524,0.0404576,0.0447059,0.0378185,0.0328535,0.0354054,0.0317217,0.0297358,0.0276446,0.0747913,0.153033,0.338619,0.454424,0.471683,0.445023,0.480456,0.387347,0.179519,0.0799464,0.056767,0.0432808,0.0598682,0.0588561,0.0644958,0.0621259,0.0609538,0.0585633,0.0609692,0.0698134,0.062495,0.0520338,0.0532705,0.0483971,0.0533807,0.0892846,0.0807208,0.067435,0.0619535,0.0621559,0.0720322,0.0761854,0.0792384,0.0751237,0.0859242,0.0913939,0.088737,0.0840945,0.0916427,0.090364,0.10423,0.126115,0.145456,0.158946,0.12575,0.186222,0.17188,0.277816,0.283894,0.326007,0.398259,0.378776,0.424878,0.44884,0.594057,0.64432,0.641817,0.523033,0.574675,0.0419287,0.0398682,nan,nan,nan,nan,nan,nan,nan,nan,nan,nan,nan,nan,nan,nan,nan,nan,nan,nan,nan,nan,nan,nan,nan,nan,nan,nan,nan,nan,nan,nan,nan,nan,nan,nan,nan,nan,nan,nan,nan,nan,nan,nan,nan,nan,nan,nan,nan,nan,nan,nan,nan,nan,nan,nan,nan,nan,nan,nan,nan,nan,nan,nan,nan,nan,nan,nan,nan,nan,nan,nan,nan,nan,nan,nan,nan,nan,nan,nan,nan,nan,nan,nan,nan,nan,nan,nan,nan,nan,nan,nan,nan,nan,nan,nan,nan,nan,nan,nan,nan,nan,nan,nan,nan,nan,nan,nan,nan,nan,nan,nan,nan,nan,nan,nan,nan,nan,nan,nan,nan,nan,nan
0.11929,0.138306,0.143055,0.115927,0.112135,0.110311,0.130021,0.131208,0.15934,0.137797,0.115559,0.119755,0.103144,0.10015,0.0997215,0.0855304,0.0636049,0.0550243,0.049788,0.0490333,0.0488022,0.0269996,0.021622,0.0990977,0.0975677,0.104197,0.0988875,0.088513,0.103192,0.0962479,0.128364,0.121931,0.122404,0.108267,0.127176,0.101002,0.126798,0.137302,0.123521,0.29982,0.340957,0.311299,0.150213,0.17687,0.169541,0.136724,0.123454,0.201721,0.20534,0.236931,0.194085,0.204645,0.158529,0.185474,0.154645,0.178885,0.170799,0.237813,0.258654,0.309446,0.223401,0.228934,0.147295,0.179218,0.101335,0.0960613,0.105577,0.10383,0.111347,0.123995,0.100471,0.124291,0.0934178,0.18309,0.181353,0.224167,0.102211,0.113576,0.0995059,0.1164,0.0573785,0.0681291,0.0544387,0.0550929,0.0510833,0.0654884,0.0422157,0.0466641,0.0548966,0.0449493,0.062781,0.0586392,0.0546721,0.0491739,0.059781,0.0539787,0.0428831,0.0411709,0.0426868,0.043328,0.0578099,0.0486033,0.046986,0.0541689,0.052108,0.0380023,0.0405291,0.0393366,0.0411358,0.04116,0.0387228,0.0345697,0.0319851,0.0373841,0.0335928,0.0312934,0.0389398,0.0309255,0.0868598,0.161124,0.350959,0.446251,0.478789,0.453483,0.490312,0.370196,0.182632,0.0948964,0.0677563,0.0571854,0.0558775,0.0562096,0.0621525,0.0741875,0.0622143,0.0670573,0.0679578,0.068709,0.0664843,0.0593482,0.0650576,0.0501101,0.0632992,0.0643512,0.0642519,0.0790038,0.0571689,0.0839384,0.0624211,0.0818791,0.0756057,0.0846665,0.123931,0.0910928,0.0943651,0.0956787,0.127848,0.107309,0.105926,0.141505,0.117796,0.150203,0.155008,0.182874,0.24163,0.297135,0.338042,0.308169,0.468637,0.502419,0.526422,0.497383,0.565001,0.630297,1,1,1,0.109877,nan,nan,nan,nan,nan,nan,nan,nan,nan,nan,nan,nan,nan,nan,nan,nan,nan,nan,nan,nan,nan,nan,nan,nan,nan,nan,nan,nan,nan,nan,nan,nan,nan,nan,nan,nan,nan,nan,nan,nan,nan,nan,nan,nan,nan,nan,nan,nan,nan,nan,nan,nan,nan,nan,nan,nan,nan,nan,nan,nan,nan,nan,nan,nan,nan,nan,nan,nan,nan,nan,nan,nan,nan,nan,nan,nan,nan,nan,nan,nan,nan,nan,nan,nan,nan,nan,nan,nan,nan,nan,nan,nan,nan,nan,nan,nan,nan,nan,nan,nan,nan,nan,nan,nan,nan,nan,nan,nan,nan,nan,nan,nan,nan,nan,nan,nan,nan,nan,nan,nan,nan,nan
0.134436,0.132378,0.077952,0.11987,0.127325,0.119767,0.222025,0.223245,0.243006,0.151088,0.163805,0.155547,0.134779,0.104063,0.0845578,0.065277,0.0611965,0.0626542,0.0546603,0.0500228,0.0462988,0.0341824,0.0238877,0.0791036,0.0775168,0.0938486,0.0925116,0.124905,0.115133,0.0853974,0.142225,0.137676,0.163961,0.14388,0.164742,0.117592,0.149022,0.134039,0.279932,0.248864,0.273128,0.267693,0.266063,0.141814,0.172066,0.115277,0.13715,0.170648,0.182076,0.180947,0.169325,0.174889,0.215294,0.161184,0.191102,0.179215,0.141856,0.263671,0.257481,0.25507,0.248098,0.250108,0.135886,0.149214,0.0896269,0.108897,0.161332,0.187357,0.112368,0.0876847,0.0982578,0.111125,0.205434,0.175959,0.150145,0.197657,0.135578,0.124454,0.0937689,0.122254,0.09353,0.0832859,0.0657089,0.0617498,0.0502178,0.0458979,0.0621204,0.0682984,0.0719179,0.062851,0.0517737,0.039994,0.04337,0.0479973,0.04941,0.0510637,0.0624143,0.0356952,0.0385858,0.0450084,0.0427252,0.0459312,0.0628599,0.0533344,0.0655032,0.0528064,0.0507584,0.0391975,0.0345207,0.0413413,0.0383511,0.0356837,0.0289616,0.029845,0.0354055,0.0372833,0.0307439,0.0461227,0.0777419,0.154663,0.351422,0.454036,0.467846,0.445268,0.47951,0.375036,0.180892,0.101917,0.0824337,0.083975,0.0876874,0.0854128,0.074994,0.0827881,0.0809981,0.116659,0.123693,0.130326,0.092394,0.0768666,0.0710107,0.0627835,0.0834716,0.0652112,0.0947569,0.0890511,0.0646956,0.0863915,0.096626,0.0989257,0.080992,0.0826105,0.13138,0.105207,0.0963639,0.119525,0.142337,0.112744,0.132009,0.142759,0.148629,0.129848,0.119307,0.215554,0.19736,0.204188,0.380069,0.31457,0.438713,0.395143,0.522114,0.569474,0.607614,1,1,1,0.406803,0.545531,0.230692,nan,nan,nan,nan,nan,nan,nan,nan,nan,nan,nan,nan,nan,nan,nan,nan,nan,nan,nan,nan,nan,nan,nan,nan,nan,nan,nan,nan,nan,nan,nan,nan,nan,nan,nan,nan,nan,nan,nan,nan,nan,nan,nan,nan,nan,nan,nan,nan,nan,nan,nan,nan,nan,nan,nan,nan,nan,nan,nan,nan,nan,nan,nan,nan,nan,nan,nan,nan,nan,nan,nan,nan,nan,nan,nan,nan,nan,nan,nan,nan,nan,nan,nan,nan,nan,nan,nan,nan,nan,nan,nan,nan,nan,nan,nan,nan,nan,nan,nan,nan,nan,nan,nan,nan,nan,nan,nan,nan,nan,nan,nan,nan,nan,nan,nan,nan,nan,nan,nan,nan,nan
0.0844796,0.0857675,0.0771463,0.100268,0.0915584,0.21857,0.241375,0.247561,0.245962,0.206274,0.175652,0.160585,0.140646,0.09916,0.0954944,0.0618939,0.062369,0.0582969,0.0468932,0.040584,0.0464271,0.0455805,0.0358628,0.0276664,0.0324994,0.0390532,0.130429,0.0932554,0.09537,0.106292,0.159814,0.153137,0.159094,0.168945,0.171996,0.140909,0.142157,0.11314,0.260581,0.25692,0.323642,0.252544,0.252116,0.0901941,0.104012,0.0960414,0.140048,0.10022,0.130846,0.157298,0.168613,0.214035,0.208341,0.222495,0.207303,0.221625,0.132838,0.120856,0.256175,0.24788,0.245408,0.182261,0.163525,0.166441,0.159009,0.171531,0.168646,0.121167,0.125756,0.143013,0.127298,0.0869801,0.179255,0.187453,0.219966,0.194924,0.182192,0.156909,0.133035,0.113148,0.0965128,0.0604779,0.0650585,0.0491362,0.046597,0.0440816,0.0607277,0.0516212,0.0498735,0.0655748,0.0451149,0.0483251,0.0564776,0.0431943,0.05558,0.052015,0.0418196,0.0470118,0.0521943,0.0559805,0.0549807,0.0526405,0.052742,0.0465722,0.0508421,0.0517074,0.0473274,0.0359664,0.0358526,0.0361616,0.0328848,0.0328967,0.030454,0.0315144,0.0251461,0.0444698,0.0333712,0.0398005,0.0762909,0.168052,0.360455,0.44294,0.444094,0.433819,0.450009,0.370442,0.208722,0.107166,0.0993237,0.0919815,0.0718691,0.0964044,0.0794225,0.0878699,0.113255,0.105124,0.129764,0.124023,0.143088,0.0820571,0.0956821,0.0947354,0.0712525,0.0932136,0.0994347,0.0964422,0.101551,0.0837596,0.11216,0.08197,0.10961,0.11656,0.100756,0.10481,0.132732,0.124887,0.145902,0.117986,0.111954,0.140297,0.133218,0.108305,0.130624,0.129238,0.246634,0.242753,0.300192,0.423945,0.343909,0.518421,0.545153,0.587444,0.435924,1,1,0.474784,0.452145,0.561475,1,nan,nan,nan,nan,nan,nan,nan,nan,nan,nan,nan,nan,nan,nan,nan,nan,nan,nan,nan,nan,nan,nan,nan,nan,nan,nan,nan,nan,nan,nan,nan,nan,nan,nan,nan,nan,nan,nan,nan,nan,nan,nan,nan,nan,nan,nan,nan,nan,nan,nan,nan,nan,nan,nan,nan,nan,nan,nan,nan,nan,nan,nan,nan,nan,nan,nan,nan,nan,nan,nan,nan,nan,nan,nan,nan,nan,nan,nan,nan,nan,nan,nan,nan,nan,nan,nan,nan,nan,nan,nan,nan,nan,nan,nan,nan,nan,nan,nan,nan,nan,nan,nan,nan,nan,nan,nan,nan,nan,nan,nan,nan,nan,nan,nan,nan,nan,nan,nan,nan,nan,nan
0.0742157,0.0694241,0.0777444,0.0913902,0.111747,0.208847,0.210799,0.242712,0.357386,0.334855,0.295089,0.153145,0.144177,0.116187,0.056575,0.0582551,0.0586476,0.05626,0.0527108,0.0472916,0.041222,0.051088,0.0466994,0.0483402,0.0620739,0.0691754,0.0987812,0.101061,0.145573,0.127813,0.131524,0.178132,0.172725,0.173322,0.0895589,0.0868236,0.116853,0.106925,0.285498,0.250952,0.246052,0.245758,0.2561,0.0931303,0.0977932,0.110831,0.105335,0.102443,0.106381,0.162777,0.143554,0.179842,0.215766,0.21238,0.19522,0.204694,0.192865,0.112446,0.116354,0.0765313,0.183009,0.183947,0.187893,0.121478,0.114093,0.148148,0.134615,0.183411,0.136967,0.113555,0.0706648,0.0986171,0.132489,0.177206,0.121553,0.194271,0.16157,0.163823,0.126681,0.102991,0.0977693,0.0835914,0.0701924,0.0473799,0.0415394,0.0423519,0.0554929,0.0599332,0.0439154,0.0523553,0.0451038,0.0462962,0.0460739,0.0386069,0.048099,0.0673901,0.0471207,0.0464731,0.0462888,0.0440072,0.0566941,0.0545449,0.0543919,0.0514413,0.0445899,0.0492436,0.0466504,0.0406094,0.0358336,0.033449,0.0326849,0.0345805,0.0218865,0.0290079,0.0265469,0.0365821,0.0401224,0.0467045,0.0787716,0.159705,0.338807,0.449319,0.44857,0.437506,0.49467,0.39987,0.205333,0.117459,0.104249,0.0932359,0.113296,0.103261,0.0878758,0.120578,0.125765,0.123439,0.16494,0.121576,0.140886,0.127291,0.115309,0.11226,0.0921469,0.0832438,0.107303,0.0893115,0.109738,0.0898302,0.110234,0.136519,0.114195,0.130792,0.122854,0.113404,0.167398,0.1562,0.120388,0.111358,0.121712,0.127475,0.115948,0.126142,0.149168,0.18923,0.173133,0.217695,0.225092,0.28119,0.331809,0.324401,0.355448,0.559887,0.559235,0.573163,0.53449,0.551822,1,1,1,nan,nan,nan,nan,nan,nan,nan,nan,nan,nan,nan,nan,nan,nan,nan,nan,nan,nan,nan,nan,nan,nan,nan,nan,nan,nan,nan,nan,nan,nan,nan,nan,nan,nan,nan,nan,nan,nan,nan,nan,nan,nan,nan,nan,nan,nan,nan,nan,nan,nan,nan,nan,nan,nan,nan,nan,nan,nan,nan,nan,nan,nan,nan,nan,nan,nan,nan,nan,nan,nan,nan,nan,nan,nan,nan,nan,nan,nan,nan,nan,nan,nan,nan,nan,nan,nan,nan,nan,nan,nan,nan,nan,nan,nan,nan,nan,nan,nan,nan,nan,nan,nan,nan,nan,nan,nan,nan,nan,nan,nan,nan,nan,nan,nan,nan,nan,nan,nan,nan,nan,nan
0.0687362,0.0566959,0.0683533,0.0976878,0.16129,0.208632,0.301334,0.292688,0.303451,0.28159,0.276794,0.274308,0.0788464,0.0794383,0.0552668,0.0568592,0.0524682,0.0314568,0.0396596,0.0492616,0.0507136,0.044429,0.0561542,0.0625748,0.0684099,0.141975,0.150755,0.173374,0.149028,0.137805,0.160126,0.120545,0.109677,0.106801,0.119243,0.0819905,0.0990241,0.0976969,0.115008,0.234169,0.236599,0.236646,0.0671542,0.131105,0.147092,0.131794,0.11527,0.0926275,0.183663,0.158956,0.169255,0.205678,0.194207,0.199853,0.17527,0.25864,0.269388,0.141983,0.103523,0.0999002,0.164228,0.152729,0.185478,0.127634,0.139077,0.15383,0.152325,0.140371,0.135643,0.133601,0.0639912,0.0944036,0.0784667,0.158063,0.154891,0.168263,0.155057,0.149213,0.127206,0.0695687,0.0758627,0.0787564,0.0718468,0.0508574,0.0435355,0.0584873,0.0494405,0.0581106,0.0585648,0.0666596,0.0648673,0.0557365,0.0587727,0.0652723,0.053882,0.0396576,0.0568273,0.0557601,0.0463012,0.0413679,0.0411119,0.0499772,0.0463063,0.0447796,0.048901,0.0487998,0.0406026,0.0510211,0.0511694,0.0403731,0.0312452,0.0342604,0.0272094,0.0417116,0.0409467,0.0386778,0.0396354,0.0426374,0.0846816,0.157935,0.31658,0.427296,0.483919,0.444309,0.487591,0.358117,0.225841,0.214068,0.195645,0.186119,0.11066,0.126653,0.139262,0.126858,0.133704,0.132591,0.139287,0.168513,0.164502,0.155633,0.148981,0.134208,0.145108,0.120085,0.125419,0.112638,0.106484,0.144804,0.117843,0.145969,0.134498,0.125594,0.116249,0.101272,0.161977,0.127932,0.152194,0.139034,0.123732,0.157394,0.121442,0.109578,0.176967,0.137326,0.168256,0.196129,0.249052,0.354451,0.340445,0.385024,0.530578,0.570097,0.613219,0.611684,0.564596,0.613223,1,1,1,nan,nan,nan,nan,nan,nan,nan,nan,nan,nan,nan,nan,nan,nan,nan,nan,nan,nan,nan,nan,nan,nan,nan,nan,nan,nan,nan,nan,nan,nan,nan,nan,nan,nan,nan,nan,nan,nan,nan,nan,nan,nan,nan,nan,nan,nan,nan,nan,nan,nan,nan,nan,nan,nan,nan,nan,nan,nan,nan,nan,nan,nan,nan,nan,nan,nan,nan,nan,nan,nan,nan,nan,nan,nan,nan,nan,nan,nan,nan,nan,nan,nan,nan,nan,nan,nan,nan,nan,nan,nan,nan,nan,nan,nan,nan,nan,nan,nan,nan,nan,nan,nan,nan,nan,nan,nan,nan,nan,nan,nan,nan,nan,nan,nan,nan,nan,nan,nan,nan,nan,nan
0.0793585,0.0894551,0.101711,0.127122,0.179911,0.194277,0.247938,0.229091,0.345235,0.339038,0.275574,0.267396,0.104814,0.098673,0.0797809,0.0563217,0.0549536,0.0368838,0.0394359,0.0462857,0.0537739,0.0537035,0.0546888,0.0691324,0.139747,0.125967,0.163845,0.174761,0.191556,0.167566,0.115925,0.110443,0.103663,0.101782,0.0938089,0.0748212,0.101493,0.0990141,0.111881,0.0963749,0.0771716,0.0795524,0.147321,0.152508,0.137699,0.192087,0.180929,0.188901,0.147935,0.150389,0.12908,0.17794,0.183659,0.248082,0.28594,0.206875,0.264928,0.24372,0.0915678,0.102788,0.0791687,0.162287,0.173644,0.135623,0.10625,0.105265,0.148615,0.147425,0.148942,0.0747131,0.0847848,0.0614251,0.0869895,0.090823,0.117139,0.128824,0.13402,0.145146,0.100808,0.0757518,0.0702489,0.077445,0.0706915,0.0546058,0.0342344,0.0418388,0.0538673,0.0415136,0.0418659,0.0617123,0.0686076,0.0628595,0.0530488,0.0704993,0.063857,0.0448952,0.0525701,0.0474059,0.0567808,0.0470931,0.0377122,0.0393541,0.0451784,0.0441407,0.0443512,0.0477604,0.0446842,0.0438242,0.0490841,0.0530656,0.0512419,0.0386572,0.0470186,0.0524438,0.0435592,0.0417457,0.0427765,0.0576046,0.0919166,0.164132,0.334203,0.449713,0.456211,0.452483,0.505132,0.380853,0.275025,0.258629,0.229972,0.208517,0.145528,0.133136,0.152877,0.156524,0.168072,0.188267,0.205438,0.236315,0.206792,0.220682,0.222057,0.194548,0.209118,0.205103,0.186274,0.140478,0.113902,0.153033,0.12787,0.130638,0.155705,0.112286,0.111538,0.137847,0.136051,0.179885,0.130675,0.114993,0.137587,0.160297,0.166136,0.170147,0.17804,0.1865,0.216755,0.241141,0.320867,0.324256,0.379484,0.494076,0.514913,0.470831,0.558546,0.531052,1,1,1,1,1,nan,nan,nan,nan,nan,nan,nan,nan,nan,nan,nan,nan,nan,nan,nan,nan,nan,nan,nan,nan,nan,nan,nan,nan,nan,nan,nan,nan,nan,nan,nan,nan,nan,nan,nan,nan,nan,nan,nan,nan,nan,nan,nan,nan,nan,nan,nan,nan,nan,nan,nan,nan,nan,nan,nan,nan,nan,nan,nan,nan,nan,nan,nan,nan,nan,nan,nan,nan,nan,nan,nan,nan,nan,nan,nan,nan,nan,nan,nan,nan,nan,nan,nan,nan,nan,nan,nan,nan,nan,nan,nan,nan,nan,nan,nan,nan,nan,nan,nan,nan,nan,nan,nan,nan,nan,nan,nan,nan,nan,nan,nan,nan,nan,nan,nan,nan,nan,nan,nan,nan,nan
0.0706822,0.0531509,0.0917435,0.103142,0.196786,0.195573,0.291155,0.282879,0.263193,0.238601,0.261822,0.255423,0.0948965,0.072716,0.0865099,0.0583353,0.059497,0.0427932,0.0378294,0.0548495,0.0458089,0.0646703,0.0657194,0.0829646,0.167144,0.172503,0.264712,0.181128,0.195134,0.160952,0.108461,0.100474,0.107052,0.10735,0.081813,0.073106,0.0705857,0.0705816,0.0751922,0.0711587,0.0735109,0.0988618,0.16199,0.14132,0.140753,0.142207,0.165184,0.163683,0.187854,0.181127,0.201298,0.183567,0.11831,0.288572,0.21809,0.284377,0.233311,0.250358,0.158189,0.147914,0.117964,0.084286,0.118825,0.110594,0.167921,0.174813,0.143406,0.122718,0.0887947,0.0714164,0.0501293,0.0622608,0.0700007,0.0870644,0.0866577,0.111746,0.141587,0.081822,0.0657586,0.0737537,0.0583543,0.0622109,0.0666663,0.0540711,0.0419327,0.04631,0.0399628,0.0516142,0.0406141,0.0538579,0.0695719,0.0584257,0.0713292,0.0520316,0.0647881,0.053994,0.0727588,0.0677357,0.067264,0.0451804,0.0491895,0.0405957,0.04536,0.0318202,0.0374297,0.0431863,0.0504241,0.0406415,0.0527286,0.0462467,0.0592128,0.0515014,0.0489991,0.0498973,0.0657662,0.0648167,0.0534182,0.0637425,0.0858759,0.182837,0.284172,0.462534,0.447076,0.466578,0.56966,0.366872,0.381461,0.266983,0.213681,0.240076,0.22856,0.194366,0.196959,0.21017,0.22034,0.243347,0.247791,0.258061,0.35355,0.343953,0.353011,0.258391,0.271573,0.269956,0.207948,0.199026,0.15581,0.165261,0.201423,0.158157,0.146489,0.167738,0.137194,0.141978,0.15925,0.132378,0.142046,0.151323,0.178431,0.203107,0.176692,0.15088,0.1844,0.224176,0.234773,0.315511,0.337507,0.346921,0.355698,0.411394,0.523476,0.481658,0.498574,1,1,1,1,1,1,nan,nan,nan,nan,nan,nan,nan,nan,nan,nan,nan,nan,nan,nan,nan,nan,nan,nan,nan,nan,nan,nan,nan,nan,nan,nan,nan,nan,nan,nan,nan,nan,nan,nan,nan,nan,nan,nan,nan,nan,nan,nan,nan,nan,nan,nan,nan,nan,nan,nan,nan,nan,nan,nan,nan,nan,nan,nan,nan,nan,nan,nan,nan,nan,nan,nan,nan,nan,nan,nan,nan,nan,nan,nan,nan,nan,nan,nan,nan,nan,nan,nan,nan,nan,nan,nan,nan,nan,nan,nan,nan,nan,nan,nan,nan,nan,nan,nan,nan,nan,nan,nan,nan,nan,nan,nan,nan,nan,nan,nan,nan,nan,nan,nan,nan,nan,nan,nan,nan,nan,nan
0.044719,0.0751058,0.0893312,0.0961365,0.12826,0.159368,0.160365,0.274225,0.25771,0.232794,0.231234,0.0767866,0.0844242,0.0675815,0.0550859,0.0588236,0.0571953,0.0405852,0.0466971,0.0445173,0.0552449,0.0592823,0.066813,0.0736309,0.170736,0.179763,0.180593,0.281554,0.184214,0.141602,0.15198,0.143521,0.141023,0.0739128,0.0663984,0.108686,0.0725827,0.0715383,0.0682003,0.0733013,0.0940769,0.102403,0.139161,0.186724,0.140371,0.181413,0.193623,0.162754,0.21046,0.124855,0.141042,0.191353,0.205261,0.276622,0.283378,0.286106,0.218908,0.239735,0.134315,0.13853,0.161067,0.10351,0.112004,0.186036,0.171957,0.149525,0.150819,0.152582,0.117798,0.0834813,0.0605443,0.0758525,0.0559053,0.0601512,0.083116,0.0873114,0.0814161,0.057799,0.0640182,0.0669794,0.0685025,0.0512438,0.0711702,0.0541892,0.0478647,0.0562263,0.0561309,0.0535017,0.0435042,0.0593027,0.0518092,0.0456196,0.0476723,0.0520692,0.0642725,0.0524827,0.0506559,0.0592063,0.066402,0.0382582,0.0431578,0.0332937,0.0387147,0.0461662,0.0375416,0.0409508,0.0414952,0.0443068,0.045502,0.0583307,0.0445313,0.0526867,0.0485921,0.0533965,0.0604588,0.0645159,0.0498751,0.0523644,0.108026,0.185927,0.307368,0.450086,0.532695,0.48955,0.569885,0.359902,0.394122,0.329284,0.335942,0.277036,0.289648,0.204228,0.210931,0.279143,0.271546,0.294934,0.336189,0.346585,0.380805,0.403202,0.416258,0.412487,0.327032,0.317867,0.272391,0.225413,0.251923,0.225921,0.202684,0.197861,0.207614,0.179188,0.177598,0.158528,0.155328,0.161887,0.169804,0.17893,0.178877,0.206009,0.249773,0.18846,0.17291,0.190659,0.333026,0.247105,0.284158,0.291247,0.360317,0.53184,0.547414,0.450372,0.541683,1,1,1,1,1,1,nan,nan,nan,nan,nan,nan,nan,nan,nan,nan,nan,nan,nan,nan,nan,nan,nan,nan,nan,nan,nan,nan,nan,nan,nan,nan,nan,nan,nan,nan,nan,nan,nan,nan,nan,nan,nan,nan,nan,nan,nan,nan,nan,nan,nan,nan,nan,nan,nan,nan,nan,nan,nan,nan,nan,nan,nan,nan,nan,nan,nan,nan,nan,nan,nan,nan,nan,nan,nan,nan,nan,nan,nan,nan,nan,nan,nan,nan,nan,nan,nan,nan,nan,nan,nan,nan,nan,nan,nan,nan,nan,nan,nan,nan,nan,nan,nan,nan,nan,nan,nan,nan,nan,nan,nan,nan,nan,nan,nan,nan,nan,nan,nan,nan,nan,nan,nan,nan,nan,nan,nan
0.0650361,0.0588139,0.086683,0.0931168,0.107972,0.138832,0.136064,0.127311,0.0982093,0.0976339,0.0650266,0.0766754,0.0589428,0.0638261,0.0676633,0.0821132,0.0452922,0.0397348,0.0515036,0.0481038,0.0555044,0.057547,0.0669804,0.0623884,0.0550642,0.171774,0.175451,0.1792,0.136404,0.145491,0.1358,0.124581,0.122621,0.125097,0.0685552,0.0617833,0.0543405,0.0613688,0.0689957,0.0655761,0.0888332,0.0839075,0.208324,0.156974,0.173983,0.179581,0.210505,0.157978,0.180997,0.149212,0.163702,0.166924,0.208037,0.214793,0.276208,0.281842,0.239497,0.147918,0.176667,0.130442,0.110608,0.101792,0.116221,0.14537,0.13727,0.188187,0.148879,0.124048,0.105229,0.0755423,0.055886,0.0776069,0.0391012,0.0599796,0.0900656,0.0713474,0.0656016,0.0520311,0.0744405,0.0461072,0.0382026,0.0812282,0.059705,0.0789511,0.0555192,0.0632987,0.0540336,0.0469105,0.0446181,0.0406906,0.0386427,0.0420387,0.0448016,0.0510944,0.0599877,0.0605387,0.0595502,0.0516291,0.0502875,0.04324,0.0404503,0.0429296,0.039666,0.045601,0.0422404,0.0487151,0.0335867,0.0434291,0.0443858,0.042311,0.0512487,0.048373,0.046877,0.0484818,0.0616552,0.0572711,0.0590375,0.0647164,0.0833273,0.18494,0.416484,0.450019,0.479253,0.432532,0.564742,0.39127,0.392987,0.301861,0.305133,0.314582,0.337976,0.217147,0.231015,0.214481,0.260121,0.280602,0.291967,0.324678,0.345948,0.433055,0.323734,0.32599,0.344309,0.316932,0.308213,0.346637,0.312234,0.277883,0.282246,0.247435,0.284727,0.252529,0.218018,0.152894,0.24112,0.225499,0.269611,0.245086,0.237074,0.224541,0.255315,0.189529,0.236625,0.292331,0.275961,0.322467,0.310372,0.404277,0.469635,0.421294,0.443419,0.532347,0.526357,1,1,1,1,1,1,nan,nan,nan,nan,nan,nan,nan,nan,nan,nan,nan,nan,nan,nan,nan,nan,nan,nan,nan,nan,nan,nan,nan,nan,nan,nan,nan,nan,nan,nan,nan,nan,nan,nan,nan,nan,nan,nan,nan,nan,nan,nan,nan,nan,nan,nan,nan,nan,nan,nan,nan,nan,nan,nan,nan,nan,nan,nan,nan,nan,nan,nan,nan,nan,nan,nan,nan,nan,nan,nan,nan,nan,nan,nan,nan,nan,nan,nan,nan,nan,nan,nan,nan,nan,nan,nan,nan,nan,nan,nan,nan,nan,nan,nan,nan,nan,nan,nan,nan,nan,nan,nan,nan,nan,nan,nan,nan,nan,nan,nan,nan,nan,nan,nan,nan,nan,nan,nan,nan,nan,nan
0.0686435,0.0796832,0.0839047,0.0891756,0.0668483,0.0755027,0.0942446,0.108366,0.0993686,0.0937984,0.0870692,0.0732099,0.0522522,0.0460153,0.047756,0.0465281,0.0481093,0.0481077,0.0471561,0.0422839,0.0491782,0.0370439,0.0543279,0.0657476,0.069214,0.0789934,0.147382,0.172433,0.126633,0.151561,0.118052,0.138126,0.116398,0.114886,0.0603269,0.0611894,0.0595179,0.0558771,0.0645999,0.0764867,0.0930449,0.175114,0.164633,0.15437,0.203644,0.166785,0.184032,0.16679,0.150371,0.209505,0.195102,0.205766,0.206973,0.1774,0.201352,0.0960089,0.118155,0.172869,0.166052,0.142386,0.145018,0.0974844,0.0881296,0.194752,0.180093,0.179974,0.155831,0.157007,0.102459,0.0813221,0.0677236,0.0446977,0.0496952,0.0428871,0.0519408,0.0613357,0.0609065,0.0488109,0.0580239,0.0566783,0.0493505,0.0626407,0.0516952,0.0638616,0.0741961,0.0610418,0.0514996,0.0369892,0.0461634,0.0383524,0.0272137,0.0259575,0.0560662,0.0475845,0.058266,0.0720523,0.06294,0.0565601,0.0641315,0.0519224,0.0475737,0.055108,0.049191,0.0486836,0.0400102,0.0425636,0.0429746,0.034096,0.0313668,0.0337884,0.0421975,0.0523618,0.050555,0.0553348,0.0638182,0.0561754,0.05439,0.0707493,0.0963648,0.184148,0.396393,0.417337,0.475268,0.4501,0.574476,0.411161,0.302854,0.370583,0.317916,0.312474,0.194369,0.191758,0.253579,0.263814,0.300143,0.343031,0.364905,0.403954,0.433168,0.450882,0.455264,0.453482,0.435778,0.336194,0.315353,0.331985,0.315227,0.345621,0.348779,0.360674,0.281519,0.275565,0.269769,0.301005,0.312499,0.288364,0.214508,0.284713,0.202218,0.312939,0.254406,0.305768,0.341479,0.301996,0.344468,0.348922,0.418952,0.454637,0.413245,0.448141,0.464192,0.599365,0.634138,0.688145,0.717635,0.465561,1,1,0.462663,nan,nan,nan,nan,nan,nan,nan,nan,nan,nan,nan,nan,nan,nan,nan,nan,nan,nan,nan,nan,nan,nan,nan,nan,nan,nan,nan,nan,nan,nan,nan,nan,nan,nan,nan,nan,nan,nan,nan,nan,nan,nan,nan,nan,nan,nan,nan,nan,nan,nan,nan,nan,nan,nan,nan,nan,nan,nan,nan,nan,nan,nan,nan,nan,nan,nan,nan,nan,nan,nan,nan,nan,nan,nan,nan,nan,nan,nan,nan,nan,nan,nan,nan,nan,nan,nan,nan,nan,nan,nan,nan,nan,nan,nan,nan,nan,nan,nan,nan,nan,nan,nan,nan,nan,nan,nan,nan,nan,nan,nan,nan,nan,nan,nan,nan,nan,nan,nan,nan,nan,nan
0.0766536,0.0798203,0.082827,0.0842809,0.0929888,0.0435707,0.0646702,0.0656416,0.0782559,0.0659567,0.0493708,0.068587,0.0617727,0.048374,0.0461977,0.0423753,0.041788,0.0408178,0.0380742,0.0456444,0.0429584,0.0484804,0.0394044,0.0679827,0.0630822,0.0812674,0.0745388,0.114565,0.118006,0.132859,0.120035,0.119195,0.112645,0.111012,0.0451583,0.0589461,0.057797,0.0602389,0.0657686,0.0729646,0.141668,0.17865,0.140057,0.174453,0.183574,0.175921,0.167564,0.0998446,0.20426,0.184549,0.18594,0.173907,0.157203,0.150756,0.184498,0.0994295,0.107685,0.172453,0.0984341,0.0971257,0.113473,0.139283,0.105237,0.0985937,0.163127,0.155521,0.160831,0.0968801,0.0940612,0.0539848,0.0481861,0.0492549,0.0473324,0.0488535,0.0518354,0.0714603,0.0612869,0.0522912,0.0542311,0.0634918,0.053106,0.0522097,0.0861348,0.0844236,0.0638147,0.0615404,0.0695136,0.0395842,0.0487397,0.0359587,0.0258255,0.0191312,0.0474364,0.0433853,0.0675072,0.0544653,0.0725504,0.0513923,0.0530731,0.0574463,0.0481921,0.0460641,0.0558014,0.0505768,0.0527651,0.0467794,0.0452909,0.0379763,0.0412232,0.0425452,0.0395305,0.0455609,0.0449124,0.0556953,0.0617023,0.0575243,0.0555244,0.0629557,0.0902603,0.17937,0.421875,0.479698,0.563883,0.4789,0.580093,0.483458,0.31245,0.210031,0.171081,0.155981,0.156415,0.200881,0.194559,0.211122,0.2648,0.293071,0.335268,0.314544,0.332798,0.361393,0.347609,0.348619,0.335853,0.327495,0.357817,0.35232,0.419936,0.383454,0.403353,0.394536,0.381572,0.380449,0.325457,0.392126,0.292404,0.377794,0.333218,0.318212,0.310738,0.346836,0.43402,0.340046,0.334726,0.520846,0.384619,0.461802,0.430648,0.51401,0.45168,0.522402,0.47677,1,1,1,1,1,1,1,1,nan,nan,nan,nan,nan,nan,nan,nan,nan,nan,nan,nan,nan,nan,nan,nan,nan,nan,nan,nan,nan,nan,nan,nan,nan,nan,nan,nan,nan,nan,nan,nan,nan,nan,nan,nan,nan,nan,nan,nan,nan,nan,nan,nan,nan,nan,nan,nan,nan,nan,nan,nan,nan,nan,nan,nan,nan,nan,nan,nan,nan,nan,nan,nan,nan,nan,nan,nan,nan,nan,nan,nan,nan,nan,nan,nan,nan,nan,nan,nan,nan,nan,nan,nan,nan,nan,nan,nan,nan,nan,nan,nan,nan,nan,nan,nan,nan,nan,nan,nan,nan,nan,nan,nan,nan,nan,nan,nan,nan,nan,nan,nan,nan,nan,nan,nan,nan,nan,nan,nan,nan
0.0805274,0.0808283,0.0897202,0.0800609,0.0887086,0.0541119,0.049472,0.057508,0.0556627,0.0362168,0.0779465,0.0736192,0.0739823,0.0671234,0.047316,0.050793,0.0439378,0.0422915,0.0328141,0.035183,0.037863,0.046392,0.0489173,0.0538812,0.0404571,0.045179,0.0751459,0.100695,0.0878412,0.104135,0.120567,0.124739,0.114033,0.0399653,0.0412115,0.0604262,0.0574477,0.0665145,0.0688041,0.140426,0.209656,0.184708,0.203932,0.215349,0.212088,0.169254,0.0997806,0.172565,0.150848,0.149104,0.213587,0.192628,0.192496,0.167768,0.11211,0.109329,0.095788,0.0890344,0.108487,0.103813,0.099332,0.122563,0.0937529,0.127097,0.124245,0.0897818,0.07544,0.0599437,0.0636604,0.0655031,0.067681,0.087801,0.0563121,0.0464305,0.0616925,0.0602983,0.0695843,0.0749734,0.0611995,0.061455,0.05771,0.0629106,0.0667658,0.0639065,0.0630881,0.0590281,0.0759841,0.0411827,0.0361532,0.0324197,0.0363001,0.0328493,0.0426092,0.0555731,0.0574168,0.0672247,0.0623508,0.0459121,0.0427658,0.0509881,0.0533174,0.0557348,0.0618188,0.0562312,0.054451,0.0569722,0.0492225,0.0425824,0.0418735,0.0373107,0.0478617,0.055699,0.0523344,0.0559537,0.0613623,0.0565123,0.0560099,0.0616333,0.092307,0.166785,0.293593,0.496933,0.536685,0.483561,0.565895,0.430389,0.311216,0.242541,0.159787,0.175251,0.157398,0.142636,0.130769,0.12499,0.129984,0.125903,0.19027,0.214027,0.223508,0.225138,0.211064,0.186594,0.297256,0.315328,0.312206,0.298849,0.461757,0.399266,0.487002,0.383673,0.378823,0.411502,0.369176,0.431234,0.400729,0.421909,0.414121,0.443231,0.372145,0.480176,0.457913,0.430545,0.491645,0.481843,0.636225,0.545831,0.543366,0.600488,1,1,1,1,1,1,1,1,1,1,1,nan,nan,nan,nan,nan,nan,nan,nan,nan,nan,nan,nan,nan,nan,nan,nan,nan,nan,nan,nan,nan,nan,nan,nan,nan,nan,nan,nan,nan,nan,nan,nan,nan,nan,nan,nan,nan,nan,nan,nan,nan,nan,nan,nan,nan,nan,nan,nan,nan,nan,nan,nan,nan,nan,nan,nan,nan,nan,nan,nan,nan,nan,nan,nan,nan,nan,nan,nan,nan,nan,nan,nan,nan,nan,nan,nan,nan,nan,nan,nan,nan,nan,nan,nan,nan,nan,nan,nan,nan,nan,nan,nan,nan,nan,nan,nan,nan,nan,nan,nan,nan,nan,nan,nan,nan,nan,nan,nan,nan,nan,nan,nan,nan,nan,nan,nan,nan,nan,nan,nan,nan
0.0739491,0.0787604,0.0751849,0.0791218,0.0791357,0.052387,0.0537062,0.0476345,0.0575549,0.0545985,0.0790802,0.0750318,0.0737479,0.0620027,0.0692251,0.0677237,0.0534146,0.0433875,0.036537,0.0235099,0.0212931,0.0249736,0.0439868,0.0505089,0.0481576,0.046293,0.0625156,0.0544224,0.0739352,0.0792753,0.072192,0.0618777,0.0614402,0.0529739,0.130497,0.0540703,0.0599356,0.0606369,0.122365,0.129954,0.200282,0.184635,0.172982,0.16451,0.151512,0.109379,0.176542,0.179679,0.14726,0.179494,0.155101,0.189693,0.184578,0.115625,0.0735901,0.0683115,0.064223,0.0771559,0.141032,0.16906,0.122701,0.0816913,0.0846757,0.116267,0.102174,0.110395,0.0923438,0.0726602,0.109393,0.0773604,0.0679448,0.0760057,0.112497,0.0862908,0.0690793,0.0704309,0.0671742,0.0580174,0.0551646,0.04833,0.0464035,0.0605396,0.0809357,0.0610197,0.0663859,0.060977,0.0551271,0.0791818,0.0450924,0.0416389,0.0436516,0.0359283,0.0286718,0.0574623,0.0650387,0.0671443,0.0337198,0.0389141,0.0592734,0.0544132,0.0588408,0.0549591,0.0557882,0.0682049,0.0631519,0.0614677,0.0601978,0.072384,0.0702123,0.0640031,0.0526283,0.0525416,0.0673664,0.0771309,0.0735903,0.0749536,0.0699567,0.0699206,0.0824845,0.163513,0.305808,0.471658,0.619232,0.486379,0.554987,0.408274,0.310513,0.226781,0.16302,0.124995,0.0921508,0.0672455,0.0543573,0.0622875,0.0617488,0.0606711,0.0552102,0.0650905,0.0636101,0.0857306,0.102798,0.11272,0.109788,0.112466,0.165198,0.207099,0.417434,0.463485,0.465098,0.408588,0.469257,0.391327,0.468533,0.448709,0.411336,0.400682,0.463735,0.578295,0.486529,0.430849,0.451378,0.550547,0.551251,0.608489,1,0.61823,0.622929,1,1,1,1,1,1,1,0.749071,1,1,1,1,nan,nan,nan,nan,nan,nan,nan,nan,nan,nan,nan,nan,nan,nan,nan,nan,nan,nan,nan,nan,nan,nan,nan,nan,nan,nan,nan,nan,nan,nan,nan,nan,nan,nan,nan,nan,nan,nan,nan,nan,nan,nan,nan,nan,nan,nan,nan,nan,nan,nan,nan,nan,nan,nan,nan,nan,nan,nan,nan,nan,nan,nan,nan,nan,nan,nan,nan,nan,nan,nan,nan,nan,nan,nan,nan,nan,nan,nan,nan,nan,nan,nan,nan,nan,nan,nan,nan,nan,nan,nan,nan,nan,nan,nan,nan,nan,nan,nan,nan,nan,nan,nan,nan,nan,nan,nan,nan,nan,nan,nan,nan,nan,nan,nan,nan,nan,nan,nan,nan,nan,nan
0.0199751,0.0784185,0.0759841,0.0780412,0.0517059,0.0531018,0.0553547,0.0533996,0.0563031,0.0538394,0.0710565,0.0784952,0.0756667,0.0733999,0.0718858,0.0706386,0.0689732,0.0538944,0.046777,0.0216403,0.0165844,0.00964103,0.017127,0.0348104,0.0554477,0.0599061,0.0646244,0.064259,0.0647855,0.0855896,0.0833031,0.0792118,0.120202,0.105335,0.124752,0.125905,0.140471,0.175387,0.107117,0.10416,0.314,0.332721,0.245049,0.153786,0.129192,0.087989,0.15164,0.171724,0.184612,0.159706,0.154454,0.154991,0.0797971,0.126271,0.117106,0.118055,0.0590316,0.148422,0.147743,0.162788,0.12529,0.127642,0.109302,0.0898207,0.130456,0.0942501,0.0931135,0.0904473,0.100652,0.0830505,0.112913,0.0762383,0.0837298,0.0880735,0.0794896,0.0811499,0.0683549,0.0544234,0.0457841,0.0412507,0.0469214,0.0532222,0.0526042,0.0541109,0.0494431,0.0851904,0.0585982,0.0687539,0.0655675,0.0651188,0.0519811,0.0620018,0.0469783,0.0501833,0.0394391,0.0378422,0.0409889,0.0427349,0.0493663,0.0625942,0.0617034,0.0606519,0.059936,0.0761313,0.0894844,0.0892016,0.0667524,0.0641117,0.0826716,0.0803886,0.0840566,0.0834096,0.085508,0.076898,0.0768447,0.0783438,0.0772116,0.0654131,0.0786347,0.197534,0.352062,0.460227,1,0.49789,0.618855,0.464114,0.332738,0.215153,0.149996,0.0964689,0.0596409,0.0527374,0.0436092,0.0352651,0.0282139,0.0304575,0.0124796,0.0107745,0.00973797,0.00938767,0.0322429,0.0416325,0.0604225,0.0771391,0.128528,0.151944,0.200171,0.427932,0.45319,0.452199,0.430693,0.449338,0.451123,0.384731,0.464174,0.564826,0.455044,0.423024,0.475373,0.427261,0.626905,0.478425,0.519984,0.575366,0.598195,0.72159,0.746722,0.764172,0.762657,0.80017,1,1,1,1,0.76198,0.748965,1,1,1,nan,nan,nan,nan,nan,nan,nan,nan,nan,nan,nan,nan,nan,nan,nan,nan,nan,nan,nan,nan,nan,nan,nan,nan,nan,nan,nan,nan,nan,nan,nan,nan,nan,nan,nan,nan,nan,nan,nan,nan,nan,nan,nan,nan,nan,nan,nan,nan,nan,nan,nan,nan,nan,nan,nan,nan,nan,nan,nan,nan,nan,nan,nan,nan,nan,nan,nan,nan,nan,nan,nan,nan,nan,nan,nan,nan,nan,nan,nan,nan,nan,nan,nan,nan,nan,nan,nan,nan,nan,nan,nan,nan,nan,nan,nan,nan,nan,nan,nan,nan,nan,nan,nan,nan,nan,nan,nan,nan,nan,nan,nan,nan,nan,nan,nan,nan,nan,nan,nan,nan,nan
0.0434615,0.0540633,0.052897,0.0529392,0.054666,0.0562576,0.0538162,0.0449276,0.0578812,0.0577442,0.0481297,0.0722559,0.0651917,0.0730256,0.0594569,0.069966,0.0502741,0.0480066,0.0381991,0.0258616,0.0127826,0.00675124,0.0155518,0.0264093,0.0347388,0.0556739,0.0609591,0.0613937,0.0799865,0.0743186,0.12859,0.122634,0.129637,0.122899,0.118586,0.118291,0.131914,0.158982,0.158696,0.293461,0.296212,0.279593,0.282184,0.292341,0.128813,0.100231,0.156376,0.15696,0.138281,0.15685,0.155828,0.111411,0.112141,0.108061,0.114319,0.106708,0.113376,0.15021,0.149857,0.169266,0.165562,0.0988361,0.112223,0.111353,0.088966,0.133222,0.120707,0.0981029,0.0832456,0.085554,0.0993493,0.0976636,0.117896,0.0822461,0.0827827,0.0684673,0.0631094,0.0746653,0.0715789,0.0469464,0.0421404,0.0444995,0.0507164,0.0709654,0.0614978,0.0560805,0.0727352,0.075926,0.0642886,0.0790016,0.0781493,0.0657338,0.0631733,0.0607359,0.0565974,0.064849,0.0723783,0.0673622,0.0753223,0.0735262,0.0687721,0.0804518,0.072119,0.0797748,0.0803807,0.104469,0.0854889,0.107886,0.109121,0.117593,0.110074,0.110373,0.101527,0.101969,0.109387,0.108645,0.092565,0.0910682,0.10699,0.216627,0.367457,0.489718,0.64495,0.499845,1,0.470574,0.3081,0.163641,0.0807118,0.0641204,0.0568233,0.0351375,0.0235119,0.0194614,0.0154837,0.0221723,0.0189379,0.0191158,0.0177985,0.0121162,0.00774586,0.00457248,0.00484326,0.0274356,0.0289706,0.108046,0.133324,0.142551,0.221589,0.224014,0.341617,0.431717,0.435002,0.484888,0.538916,0.416282,0.48324,0.564127,0.467004,0.567488,0.520585,0.57055,1,0.561573,1,0.554352,1,0.604341,0.667068,0.818949,0.684936,0.713085,0.839709,0.815424,1,1,1,1,nan,nan,nan,nan,nan,nan,nan,nan,nan,nan,nan,nan,nan,nan,nan,nan,nan,nan,nan,nan,nan,nan,nan,nan,nan,nan,nan,nan,nan,nan,nan,nan,nan,nan,nan,nan,nan,nan,nan,nan,nan,nan,nan,nan,nan,nan,nan,nan,nan,nan,nan,nan,nan,nan,nan,nan,nan,nan,nan,nan,nan,nan,nan,nan,nan,nan,nan,nan,nan,nan,nan,nan,nan,nan,nan,nan,nan,nan,nan,nan,nan,nan,nan,nan,nan,nan,nan,nan,nan,nan,nan,nan,nan,nan,nan,nan,nan,nan,nan,nan,nan,nan,nan,nan,nan,nan,nan,nan,nan,nan,nan,nan,nan,nan,nan,nan,nan,nan,nan,nan,nan,nan
0.0567302,0.0563616,0.0413287,0.0544235,0.0458377,0.0537608,0.055482,0.0562632,0.0587865,0.0572471,0.0409168,0.0498602,0.0361369,0.0453648,0.0385313,0.0619656,0.0513988,0.0494068,0.0317112,0.0236053,0.00792739,0.012,0.0184016,0.0234089,0.0431351,0.102955,0.103054,0.103157,0.0734526,0.0703756,0.131122,0.153194,0.16025,0.348082,0.332025,0.336551,0.127845,0.142579,0.153555,0.285988,0.291729,0.318679,0.283033,0.291787,0.0987974,0.104487,0.125966,0.169732,0.164335,0.112144,0.109103,0.110343,0.105398,0.0960806,0.114957,0.0989193,0.107225,0.140752,0.164878,0.189791,0.156114,0.158344,0.0967743,0.0892132,0.0925779,0.095783,0.0837116,0.0799665,0.0836838,0.0800133,0.086678,0.0951708,0.082418,0.0920322,0.0810037,0.0942841,0.0909953,0.0667356,0.0561571,0.0608945,0.0478107,0.0480101,0.059059,0.0632966,0.0645672,0.0715272,0.0775072,0.0723817,0.0875134,0.0690494,0.075193,0.0759706,0.0792414,0.0791566,0.0821277,0.0739618,0.0840234,0.104821,0.0868708,0.0989308,0.0844408,0.0821639,0.0974582,0.0973397,0.103786,0.0846453,0.0798532,0.109801,0.112423,0.137843,0.109573,0.109933,0.0928672,0.0917078,0.0879283,0.0796506,0.0900715,0.0933085,0.113862,0.220386,0.340382,0.420195,0.505851,0.517996,0.623098,0.459801,0.25969,0.123583,0.0735973,0.062944,0.0619677,0.0466924,0.041712,0.0400364,0.0348702,0.025758,0.0190465,0.0193189,0.0221384,0.0187993,0.00861118,0.00303539,0.000398581,0.00073531,0.00073531,0.00073531,0.0932428,0.0992507,0.112533,0.158254,0.162732,0.233016,0.337149,0.344466,0.523631,0.530254,0.541623,0.447946,0.453331,0.54546,0.575787,0.574836,0.603588,1,0.618191,1,1,1,0.786439,0.820289,0.79202,0.80425,0.818219,1,1,1,1,1,nan,nan,nan,nan,nan,nan,nan,nan,nan,nan,nan,nan,nan,nan,nan,nan,nan,nan,nan,nan,nan,nan,nan,nan,nan,nan,nan,nan,nan,nan,nan,nan,nan,nan,nan,nan,nan,nan,nan,nan,nan,nan,nan,nan,nan,nan,nan,nan,nan,nan,nan,nan,nan,nan,nan,nan,nan,nan,nan,nan,nan,nan,nan,nan,nan,nan,nan,nan,nan,nan,nan,nan,nan,nan,nan,nan,nan,nan,nan,nan,nan,nan,nan,nan,nan,nan,nan,nan,nan,nan,nan,nan,nan,nan,nan,nan,nan,nan,nan,nan,nan,nan,nan,nan,nan,nan,nan,nan,nan,nan,nan,nan,nan,nan,nan,nan,nan,nan,nan,nan,nan,nan
0.0390656,0.0390421,0.0556636,0.0502509,0.0516782,0.0536018,0.0550134,0.056111,0.0572342,0.0435436,0.0475286,0.0484293,0.046004,0.050449,0.0432652,0.0492635,0.0520619,0.0429557,0.0356453,0.0342156,0.013438,0.0139679,0.0214751,0.0377428,0.0983334,0.100195,0.0926313,0.0746536,0.0853663,0.0626084,0.163511,0.162968,0.329557,0.340843,0.325798,0.330012,0.336594,0.144455,0.148511,0.272596,0.288027,0.286313,0.278535,0.288509,0.0942372,0.128755,0.127566,0.188244,0.119038,0.0968857,0.113965,0.108571,0.0922053,0.098716,0.0897263,0.0951343,0.111025,0.0962932,0.162414,0.137547,0.13174,0.0997949,0.105248,0.0667283,0.0599989,0.076715,0.0808109,0.0817043,0.0817462,0.0768703,0.0771711,0.0780928,0.0782751,0.0776611,0.0980885,0.0772434,0.0650299,0.0779428,0.0625108,0.0629572,0.0560311,0.0563522,0.0593472,0.0609269,0.069575,0.0662885,0.073887,0.0764216,0.0778593,0.0928299,0.0835733,0.0794239,0.0801404,0.0720505,0.0728979,0.0787046,0.0779873,0.0783394,0.0998179,0.077278,0.0852568,0.0852176,0.0851555,0.0863171,0.0993956,0.105027,0.107506,0.119643,0.138798,0.109833,0.136287,0.117917,0.0997392,0.0936396,0.105002,0.0874036,0.0847086,0.0792916,0.111654,0.182863,0.297185,0.402222,0.550102,0.521605,0.549944,0.40117,0.249937,0.125327,0.0431545,0.0273235,0.0369003,0.0429959,0.0431775,0.0423554,0.0484431,0.0347436,0.034316,0.0253911,0.0267295,0.0200759,0.00896893,0.00550377,0.00179885,4.13921e-09,1.24176e-08,1.24176e-08,1.65568e-08,1.65568e-08,0.0621783,0.0521375,0.0796648,0.157051,0.213182,0.230756,0.305735,0.323888,0.339442,0.421978,0.418053,0.420654,0.296635,0.312248,0.381334,0.646968,1,1,1,1,0.60468,0.608196,0.629307,1,1,1,1,1,1,1,nan,nan,nan,nan,nan,nan,nan,nan,nan,nan,nan,nan,nan,nan,nan,nan,nan,nan,nan,nan,nan,nan,nan,nan,nan,nan,nan,nan,nan,nan,nan,nan,nan,nan,nan,nan,nan,nan,nan,nan,nan,nan,nan,nan,nan,nan,nan,nan,nan,nan,nan,nan,nan,nan,nan,nan,nan,nan,nan,nan,nan,nan,nan,nan,nan,nan,nan,nan,nan,nan,nan,nan,nan,nan,nan,nan,nan,nan,nan,nan,nan,nan,nan,nan,nan,nan,nan,nan,nan,nan,nan,nan,nan,nan,nan,nan,nan,nan,nan,nan,nan,nan,nan,nan,nan,nan,nan,nan,nan,nan,nan,nan,nan,nan,nan,nan,nan,nan,nan,nan,nan,nan
0.0472769,0.0504522,0.0492152,0.04875,0.0489713,0.0546689,0.0540497,0.0491438,0.0539556,0.0528661,0.0508406,0.0333186,0.0439557,0.0479573,0.0469224,0.036925,0.0973686,0.0944438,0.087897,0.0811085,0.0819125,0.0226455,0.0380392,0.0516399,0.0989805,0.0833648,0.102686,0.0754383,0.0761922,0.0997312,0.139683,0.154311,0.278842,0.337293,0.401647,0.339214,0.330739,0.131136,0.166121,0.132222,0.316041,0.265775,0.273971,0.0755923,0.0884457,0.17785,0.156914,0.12432,0.13836,0.104025,0.12386,0.0989692,0.0966329,0.0923648,0.0885646,0.0906333,0.0691198,0.113547,0.1363,0.223968,0.208208,0.215007,0.0972901,0.0976848,0.0715898,0.0858708,0.0727632,0.0880676,0.087066,0.0883524,0.0781198,0.0807084,0.0783351,0.0934878,0.0772214,0.0876616,0.0719506,0.0682079,0.0657023,0.0638158,0.0602564,0.071774,0.0697081,0.0709385,0.0702621,0.0736476,0.0778906,0.0890767,0.0900565,0.0898613,0.0826267,0.082574,0.0777566,0.0826364,0.0754085,0.0838872,0.0813208,0.0792734,0.10405,0.0846587,0.0744341,0.0932371,0.0962414,0.0848216,0.0905062,0.0732761,0.0762994,0.0746899,0.132884,0.133149,0.132606,0.075725,0.0752047,0.0834549,0.0788525,0.0802674,0.078834,0.0888782,0.103064,0.160799,0.277344,0.375246,0.538479,0.419635,0.489595,0.383835,0.253575,0.145826,0.0546835,0.0370202,0.0332372,0.0314817,0.031304,0.0266888,0.0290013,0.0228996,0.0460615,0.0396681,0.027407,0.023715,0.00952444,0.0036456,0.000382282,8.27014e-06,2.06961e-08,2.06961e-08,1.65568e-08,1.65568e-08,1.65568e-08,1.65568e-08,8.27842e-09,0.0532118,0.116836,0.0978071,0.139613,0.140253,0.148235,0.214761,0.154155,0.16936,0.164154,0.244929,0.251454,0.327958,0.393918,0.416308,0.458748,0.496231,0.503624,0.53742,0.587732,1,1,0.551161,0.518317,1,1,1,nan,nan,nan,nan,nan,nan,nan,nan,nan,nan,nan,nan,nan,nan,nan,nan,nan,nan,nan,nan,nan,nan,nan,nan,nan,nan,nan,nan,nan,nan,nan,nan,nan,nan,nan,nan,nan,nan,nan,nan,nan,nan,nan,nan,nan,nan,nan,nan,nan,nan,nan,nan,nan,nan,nan,nan,nan,nan,nan,nan,nan,nan,nan,nan,nan,nan,nan,nan,nan,nan,nan,nan,nan,nan,nan,nan,nan,nan,nan,nan,nan,nan,nan,nan,nan,nan,nan,nan,nan,nan,nan,nan,nan,nan,nan,nan,nan,nan,nan,nan,nan,nan,nan,nan,nan,nan,nan,nan,nan,nan,nan,nan,nan,nan,nan,nan,nan,nan,nan,nan,nan,nan
0.0489874,0.0448128,0.0309939,0.0331449,0.0202913,0.0293376,0.0509427,0.0528773,0.0468459,0.0436619,0.0489218,0.0462078,0.0293981,0.0275168,0.0238091,0.0941748,0.0955086,0.0911376,0.0672005,0.0894745,0.083261,0.0871041,0.0507812,0.0536775,0.0858789,0.0781837,0.0730042,0.0968639,0.074982,0.0403226,0.136965,0.164903,0.42233,0.331941,0.352298,0.383574,0.39338,0.22188,0.174448,0.145481,0.151451,0.122647,0.11727,0.0787545,0.087728,0.173157,0.153173,0.180205,0.110356,0.142316,0.0988981,0.120399,0.0936428,0.0862777,0.0475002,0.059136,0.066945,0.126112,0.180975,0.137901,0.209249,0.210935,0.224675,0.145764,0.0738463,0.0942415,0.0908236,0.0976497,0.0923311,0.0918109,0.0790465,0.0621013,0.0769931,0.0741117,0.085819,0.0678853,0.0620828,0.069615,0.0641599,0.0635459,0.0706725,0.0555059,0.059038,0.0704403,0.0664856,0.0695189,0.0715965,0.0665865,0.0810164,0.0753443,0.0874712,0.0642325,0.0690229,0.0737347,0.0720355,0.0586345,0.0724151,0.075542,0.0799739,0.0861816,0.0522477,0.0586389,0.0572177,0.0488857,0.0528174,0.0635626,0.0651318,0.0625577,0.0721344,0.0697656,0.0698444,0.0592785,0.059343,0.0564579,0.0545903,0.0542552,0.0630083,0.0645504,0.0745198,0.13831,0.22013,0.361576,0.481014,0.39557,0.451305,0.357868,0.232426,0.122841,0.0448738,0.0229784,0.0208761,0.0196042,0.0197789,0.0189375,0.0172044,0.0157122,0.0194786,0.0198995,0.0192349,0.0126143,0.00831137,0.002843,0.000157406,8.27014e-06,2.06961e-08,3.31137e-08,2.48353e-08,1.65568e-08,8.27842e-09,1.65568e-08,8.27842e-09,3.09304e-16,0.0136573,0.0355842,0.0263069,0.0940162,0.066289,0.0740422,0.0696855,0.0732026,0.0964163,0.140658,0.125466,0.201523,0.248547,0.304037,0.31217,0.320856,0.262471,0.251327,0.124113,0.152637,0.158294,0.189239,0.17979,0.0272806,0.0272806,0.026009,nan,nan,nan,nan,nan,nan,nan,nan,nan,nan,nan,nan,nan,nan,nan,nan,nan,nan,nan,nan,nan,nan,nan,nan,nan,nan,nan,nan,nan,nan,nan,nan,nan,nan,nan,nan,nan,nan,nan,nan,nan,nan,nan,nan,nan,nan,nan,nan,nan,nan,nan,nan,nan,nan,nan,nan,nan,nan,nan,nan,nan,nan,nan,nan,nan,nan,nan,nan,nan,nan,nan,nan,nan,nan,nan,nan,nan,nan,nan,nan,nan,nan,nan,nan,nan,nan,nan,nan,nan,nan,nan,nan,nan,nan,nan,nan,nan,nan,nan,nan,nan,nan,nan,nan,nan,nan,nan,nan,nan,nan,nan,nan,nan,nan,nan,nan,nan,nan,nan,nan,nan,nan
0.0518035,0.0616589,0.0536738,0.0378688,0.0339314,0.0283946,0.0270897,0.0755436,0.0759135,0.0721076,0.036206,0.0481316,0.0463095,0.0279458,0.0305252,0.102469,0.089057,0.0957196,0.0912927,0.0842224,0.0893426,0.0906359,0.057853,0.0480047,0.0628585,0.0810947,0.0761732,0.072303,0.0444285,0.0437215,0.160699,0.223488,0.227927,0.380439,0.393302,0.39341,0.228519,0.236139,0.231218,0.141115,0.150272,0.160187,0.158431,0.124354,0.133289,0.154981,0.150577,0.13021,0.153253,0.148552,0.14017,0.102252,0.0729147,0.0821837,0.0612607,0.0694168,0.0715898,0.126556,0.186947,0.187632,0.224624,0.216053,0.20241,0.159874,0.119908,0.106516,0.100936,0.106761,0.10314,0.100842,0.0880335,0.0672851,0.0635155,0.0650487,0.0610554,0.0583782,0.0653366,0.0576011,0.0595403,0.0505142,0.0524143,0.058694,0.0654209,0.0530545,0.0648711,0.0576674,0.0652124,0.0483826,0.0450198,0.0480383,0.0396684,0.0342708,0.0391097,0.0312707,0.0333264,0.0491724,0.0433742,0.0530298,0.0535641,0.0530037,0.044309,0.0440459,0.0510883,0.056348,0.0479768,0.0578592,0.0563048,0.0495579,0.0474575,0.0519623,0.0411052,0.0445451,0.0392669,0.0313596,0.0239587,0.0304794,0.0337017,0.034597,0.0557337,0.101347,0.180803,0.321041,0.430004,0.346363,0.419805,0.344041,0.234882,0.138011,0.0593486,0.0334155,0.0261802,0.0249899,0.0214007,0.0184577,0.0146218,0.0153518,0.0138241,0.0146603,0.0161845,0.0125569,0.00836635,0.00166378,0.000157402,9.34634e-06,5.7949e-08,2.48353e-08,2.06961e-08,1.65568e-08,1.65568e-08,1.65568e-08,8.27842e-09,3.10925e-16,0,0,0,0.0157337,0.00953401,0.00272808,0.0319607,0.00327566,0.0192366,0.0357445,0.034885,0.0313705,0.115446,0.0286196,0.133248,0.0390169,0.0441893,0.032216,0.0256755,0.0129571,0.0112182,0.00571998,0.00619461,0.00619461,nan,nan,nan,nan,nan,nan,nan,nan,nan,nan,nan,nan,nan,nan,nan,nan,nan,nan,nan,nan,nan,nan,nan,nan,nan,nan,nan,nan,nan,nan,nan,nan,nan,nan,nan,nan,nan,nan,nan,nan,nan,nan,nan,nan,nan,nan,nan,nan,nan,nan,nan,nan,nan,nan,nan,nan,nan,nan,nan,nan,nan,nan,nan,nan,nan,nan,nan,nan,nan,nan,nan,nan,nan,nan,nan,nan,nan,nan,nan,nan,nan,nan,nan,nan,nan,nan,nan,nan,nan,nan,nan,nan,nan,nan,nan,nan,nan,nan,nan,nan,nan,nan,nan,nan,nan,nan,nan,nan,nan,nan,nan,nan,nan,nan,nan,nan,nan,nan,nan,nan,nan,nan,nan,nan
0.0543051,0.0549391,0.0436357,0.0505399,0.0863491,0.0860905,0.0854177,0.0787215,0.0782918,0.0777649,0.0791553,0.0429601,0.0385737,0.0385849,0.029061,0.0955458,0.0913396,0.0898121,0.0937429,0.101449,0.0958234,0.0975203,0.0577147,0.0695141,0.0796933,0.048954,0.0550707,0.052152,0.0509896,0.0542669,0.14104,0.213999,0.283731,0.408476,0.415436,0.411742,0.213853,0.36148,0.332698,0.282796,0.271175,0.301606,0.137295,0.117997,0.108186,0.0879284,0.152228,0.115974,0.130102,0.137874,0.153876,0.0887463,0.116155,0.0867473,0.0742783,0.0795382,0.092892,0.0795259,0.180471,0.180499,0.199803,0.199921,0.157362,0.129898,0.132368,0.092388,0.102434,0.105566,0.103972,0.0946835,0.0723915,0.0618887,0.0564646,0.0745169,0.0523618,0.0544709,0.0495691,0.05631,0.0464017,0.0616871,0.0438542,0.055553,0.0498446,0.045226,0.0508839,0.0419265,0.0407566,0.0504244,0.041159,0.0341653,0.0374413,0.0316735,0.0289798,0.0291853,0.0238389,0.025436,0.0366924,0.0378445,0.0318286,0.0320053,0.0357947,0.033558,0.0396692,0.038567,0.0331905,0.0390195,0.0413076,0.0408154,0.0363871,0.0560262,0.0501405,0.0478591,0.0472599,0.0469954,0.0370276,0.0289911,0.0309926,0.0365494,0.0574287,0.0920087,0.176881,0.286843,0.421656,0.336365,0.429651,0.352347,0.2398,0.135904,0.0536754,0.0263843,0.020507,0.0168864,0.0161352,0.0152345,0.0126649,0.0140184,0.0142203,0.0154027,0.0148481,0.0111141,0.00568157,0.00246392,0.000839371,3.7315e-05,8.27842e-08,2.06961e-08,2.06961e-08,1.65568e-08,1.65568e-08,8.27842e-09,0,3.10937e-16,-3.21173e-16,3.2703e-16,3.20062e-16,3.14671e-16,1.24011e-05,0.000676634,0.00309517,0.00416843,0.0328555,0.0329213,0.023404,0.0228002,0.0385307,0.027946,0.0305252,0.0364975,0.039317,0.0395044,0.0276597,0.0174886,0.0135906,0.00084517,6.38991e-05,3.36052e-05,2.06961e-09,nan,nan,nan,nan,nan,nan,nan,nan,nan,nan,nan,nan,nan,nan,nan,nan,nan,nan,nan,nan,nan,nan,nan,nan,nan,nan,nan,nan,nan,nan,nan,nan,nan,nan,nan,nan,nan,nan,nan,nan,nan,nan,nan,nan,nan,nan,nan,nan,nan,nan,nan,nan,nan,nan,nan,nan,nan,nan,nan,nan,nan,nan,nan,nan,nan,nan,nan,nan,nan,nan,nan,nan,nan,nan,nan,nan,nan,nan,nan,nan,nan,nan,nan,nan,nan,nan,nan,nan,nan,nan,nan,nan,nan,nan,nan,nan,nan,nan,nan,nan,nan,nan,nan,nan,nan,nan,nan,nan,nan,nan,nan,nan,nan,nan,nan,nan,nan,nan,nan,nan,nan,nan,nan
0.0564639,0.0604673,0.0460478,0.100673,0.0975952,0.0879891,0.0862274,0.0880174,0.0896848,0.0793572,0.0799905,0.0391768,0.0431652,0.0524955,0.0298004,0.0449961,0.0958112,0.123046,0.102154,0.0999781,0.104852,0.0604065,0.0711004,0.0777009,0.0777864,0.0748095,0.0629229,0.0442137,0.0436446,0.0659879,0.147387,0.211982,0.454412,0.401231,0.31166,0.40944,0.425116,0.348278,0.3284,0.301853,0.261541,0.258321,0.28405,0.122547,0.123002,0.0740448,0.0741709,0.0820768,0.093941,0.0743867,0.109535,0.0813086,0.0966598,0.071958,0.0767769,0.0715122,0.0952493,0.10896,0.113006,0.171754,0.19531,0.19591,0.168891,0.130127,0.149432,0.0973902,0.0880268,0.0957353,0.093623,0.095175,0.0692324,0.0557155,0.0524595,0.0426646,0.0465934,0.0652384,0.0544702,0.0317194,0.037363,0.0436154,0.0399547,0.0348216,0.0430841,0.0311693,0.0366605,0.0459498,0.0463749,0.0369299,0.037263,0.0359135,0.0343744,0.0312582,0.0247027,0.0242921,0.0215094,0.0226231,0.0157941,0.0171529,0.0247984,0.02437,0.0271658,0.0375731,0.0439857,0.032946,0.0334887,0.0465275,0.0379081,0.0339971,0.0342984,0.039634,0.0413269,0.0330842,0.0373718,0.0466204,0.0456658,0.0455904,0.0463559,0.0421539,0.0475098,0.0795641,0.160657,0.281549,0.393216,0.345474,0.433348,0.36693,0.218332,0.139912,0.0685157,0.0413285,0.0363712,0.0326043,0.0273241,0.0235826,0.0154289,0.0164665,0.0153365,0.0121211,0.0135997,0.00990234,0.00477933,0.00255921,0.00086444,3.73274e-05,7.8645e-08,2.06961e-08,4.13921e-09,3.37349e-16,3.52354e-16,3.36048e-16,0,3.13136e-16,3.21012e-16,-3.40209e-16,3.29787e-16,6.40288e-16,3.1059e-16,0.00201537,0.00362287,0.00595919,0.0328859,0.0331786,0.0346051,0.0270243,0.0292291,0.031058,0.0363593,0.0368172,0.0365498,0.0374712,0.0410889,0.0222847,0.014294,0.000845171,6.39001e-05,2.06961e-09,2.06961e-09,nan,nan,nan,nan,nan,nan,nan,nan,nan,nan,nan,nan,nan,nan,nan,nan,nan,nan,nan,nan,nan,nan,nan,nan,nan,nan,nan,nan,nan,nan,nan,nan,nan,nan,nan,nan,nan,nan,nan,nan,nan,nan,nan,nan,nan,nan,nan,nan,nan,nan,nan,nan,nan,nan,nan,nan,nan,nan,nan,nan,nan,nan,nan,nan,nan,nan,nan,nan,nan,nan,nan,nan,nan,nan,nan,nan,nan,nan,nan,nan,nan,nan,nan,nan,nan,nan,nan,nan,nan,nan,nan,nan,nan,nan,nan,nan,nan,nan,nan,nan,nan,nan,nan,nan,nan,nan,nan,nan,nan,nan,nan,nan,nan,nan,nan,nan,nan,nan,nan,nan,nan,nan,nan
0.0555513,0.048056,0.0461534,0.108236,0.103601,0.11726,0.0952474,0.0858569,0.0812069,0.0807563,0.0791344,0.0505206,0.0395906,0.0571117,0.0759831,0.0879671,0.0878287,0.10924,0.118616,0.119563,0.0805703,0.102704,0.0940905,0.088176,0.0774788,0.0677347,0.0523353,0.052819,0.0486502,0.10097,0.189338,0.188004,0.389668,0.394631,0.419277,0.308027,0.379766,0.285409,0.334414,0.306229,0.29486,0.259916,0.27661,0.139286,0.106072,0.125961,0.0710475,0.0905791,0.0847092,0.0721838,0.0976814,0.0697748,0.100879,0.123745,0.114029,0.096472,0.0999791,0.0915856,0.0870512,0.0861352,0.104168,0.130692,0.134023,0.117622,0.123665,0.0682118,0.0851286,0.0894336,0.0917934,0.0880934,0.0735515,0.0472109,0.0476216,0.0499834,0.056707,0.037082,0.0518659,0.0493342,0.0274693,0.0332191,0.030429,0.030469,0.0350678,0.0299749,0.0288514,0.0271129,0.0460101,0.0396765,0.0375991,0.0413697,0.0391066,0.0296376,0.0255528,0.0209768,0.0182876,0.0192175,0.0150697,0.0136167,0.012977,0.0203926,0.0252885,0.02866,0.0299268,0.0315299,0.0279402,0.0304872,0.0363446,0.0370423,0.0332753,0.0477799,0.0369267,0.0379319,0.0478799,0.0412185,0.0473006,0.0469061,0.0364027,0.0468767,0.0403976,0.0812661,0.153672,0.276126,0.410762,0.38633,0.409312,0.360988,0.219303,0.140153,0.0589436,0.0380926,0.0356109,0.0386183,0.0392091,0.0433278,0.0271391,0.0241174,0.0185269,0.0177784,0.0169537,0.0153958,0.00883495,0.00260697,0.000841704,3.73274e-05,1.24176e-08,4.13921e-09,0,3.48721e-16,3.44927e-16,8.27842e-09,8.27842e-09,8.27842e-09,3.13068e-16,0,0,3.18994e-16,-3.13038e-16,0.00011519,0.00360135,0.00580911,0.0326177,0.0311248,0.0289801,0.0290756,0.0404802,0.0379258,0.0278957,0.0383069,0.0477953,0.0488764,0.0419713,0.0485533,0.0372597,0.0312227,6.39001e-05,5.06019e-07,5.17401e-09,3.10441e-09,nan,nan,nan,nan,nan,nan,nan,nan,nan,nan,nan,nan,nan,nan,nan,nan,nan,nan,nan,nan,nan,nan,nan,nan,nan,nan,nan,nan,nan,nan,nan,nan,nan,nan,nan,nan,nan,nan,nan,nan,nan,nan,nan,nan,nan,nan,nan,nan,nan,nan,nan,nan,nan,nan,nan,nan,nan,nan,nan,nan,nan,nan,nan,nan,nan,nan,nan,nan,nan,nan,nan,nan,nan,nan,nan,nan,nan,nan,nan,nan,nan,nan,nan,nan,nan,nan,nan,nan,nan,nan,nan,nan,nan,nan,nan,nan,nan,nan,nan,nan,nan,nan,nan,nan,nan,nan,nan,nan,nan,nan,nan,nan,nan,nan,nan,nan,nan,nan,nan,nan,nan,nan
0.0218913,0.0480002,0.0506846,0.112351,0.116844,0.1091,0.0926621,0.0855242,0.0792002,0.0800999,0.0451727,0.0484265,0.0461629,0.0750147,0.0829524,0.091697,0.132909,0.118967,0.123307,0.125351,0.145504,0.100907,0.123792,0.1562,0.140137,0.116028,0.0537469,0.0526861,0.0503787,0.0438793,0.177219,0.204268,0.314485,0.318007,0.328775,0.34289,0.35646,0.269433,0.313168,0.254479,0.250526,0.295682,0.299962,0.095216,0.0998124,0.0630769,0.0551258,0.0706229,0.0639285,0.067083,0.0661421,0.0940741,0.110065,0.111055,0.105276,0.120416,0.0917622,0.0932719,0.095168,0.0740509,0.0861846,0.11341,0.100693,0.110095,0.0906235,0.0694745,0.089206,0.104439,0.0930746,0.0788446,0.0705005,0.0444141,0.0478927,0.0419205,0.054162,0.0525878,0.0467768,0.0549395,0.0196751,0.0227947,0.0302209,0.0260038,0.0237001,0.0289421,0.022573,0.0243339,0.026742,0.0470354,0.0408391,0.0419217,0.0474302,0.0253333,0.0285043,0.0239143,0.0212068,0.0160876,0.0124859,0.0142072,0.0156519,0.0170293,0.0187269,0.00915641,0.0275337,0.0276711,0.0283491,0.0315625,0.0339948,0.034917,0.030808,0.0383064,0.0396157,0.0383815,0.0401334,0.0479713,0.0478086,0.0416182,0.0464264,0.0461215,0.0502606,0.0833763,0.16841,0.310357,0.498315,0.46093,0.428397,0.402413,0.225751,0.128466,0.0595713,0.0369759,0.0295938,0.0263965,0.0243444,0.0252172,0.0242211,0.0237697,0.0202477,0.025548,0.013905,0.0163599,0.0110166,0.00289877,0.00165908,0.000626847,2.06961e-08,2.06961e-08,8.27842e-09,8.27842e-09,8.27842e-09,8.27842e-09,8.27842e-09,8.27842e-09,8.27842e-09,3.12695e-16,3.13997e-16,3.07318e-16,6.0847e-16,0.00184857,0.00423885,0.00826888,0.00935518,0.0347229,0.0335697,0.0367023,0.02283,0.0251526,0.0442832,0.0461623,0.0379358,0.0434289,0.06708,0.0460866,0.0433482,0.0146037,0.000604333,0.000604332,0.000604331,0.000584325,nan,nan,nan,nan,nan,nan,nan,nan,nan,nan,nan,nan,nan,nan,nan,nan,nan,nan,nan,nan,nan,nan,nan,nan,nan,nan,nan,nan,nan,nan,nan,nan,nan,nan,nan,nan,nan,nan,nan,nan,nan,nan,nan,nan,nan,nan,nan,nan,nan,nan,nan,nan,nan,nan,nan,nan,nan,nan,nan,nan,nan,nan,nan,nan,nan,nan,nan,nan,nan,nan,nan,nan,nan,nan,nan,nan,nan,nan,nan,nan,nan,nan,nan,nan,nan,nan,nan,nan,nan,nan,nan,nan,nan,nan,nan,nan,nan,nan,nan,nan,nan,nan,nan,nan,nan,nan,nan,nan,nan,nan,nan,nan,nan,nan,nan,nan,nan,nan,nan,nan,nan,nan
0.0309415,0.0559499,0.0533633,0.0460216,0.115675,0.114726,0.111473,0.050325,0.0518206,0.0269657,0.0427877,0.0491976,0.045304,0.0850791,0.124205,0.126531,0.29015,0.313162,0.240903,0.156861,0.1295,0.157105,0.125872,0.151301,0.127797,0.121225,0.118633,0.0578798,0.0559262,0.0521183,0.189146,0.198584,0.169726,0.34329,0.345108,0.325999,0.150299,0.273459,0.295668,0.253889,0.244318,0.260743,0.13239,0.100562,0.0991038,0.0564357,0.0599493,0.0595986,0.066684,0.0729719,0.105559,0.120198,0.120517,0.109612,0.133005,0.111604,0.0845971,0.0830775,0.0729323,0.0869296,0.0713372,0.0737037,0.0994988,0.0765416,0.0811994,0.0814027,0.0728432,0.0815405,0.0844754,0.0945472,0.0685191,0.049527,0.0220273,0.0526241,0.0432043,0.0508655,0.051185,0.0459125,0.034486,0.020921,0.0181451,0.0261494,0.0262719,0.0174724,0.0216868,0.0210108,0.022928,0.0345621,0.038024,0.0488206,0.0494169,0.0486266,0.0328945,0.0300303,0.0219462,0.0188667,0.0180287,0.0161844,0.0137347,0.00781365,0.00465136,0.0051493,0.00628685,0.0130968,0.0139062,0.0141619,0.0282086,0.0304139,0.0309448,0.0266473,0.0347472,0.0375946,0.0305989,0.0379212,0.0346395,0.0361598,0.0308003,0.0435211,0.0523714,0.120987,0.285995,0.436665,0.625209,0.558725,0.633839,0.504949,0.335432,0.139974,0.0365452,0.0204609,0.0198117,0.0196868,0.0337642,0.0201221,0.0225969,0.0192841,0.0160172,0.0226485,0.0169085,0.0159757,0.0105509,0.00290704,0.000757163,4.47821e-05,2.24345e-06,2.06961e-08,2.06961e-08,8.27842e-09,8.27842e-09,8.27842e-09,8.27842e-09,8.27842e-09,8.27842e-09,8.27842e-09,8.27842e-09,3.05645e-16,0.00212297,0.00281425,0.00455404,0.00720365,0.00828492,0.0201103,0.01961,0.0232675,0.0278354,0.04106,0.0462945,0.0385291,0.0617034,0.0685605,0.0601918,0.0454009,0.0400281,0.0110141,0.0226334,0.0138889,0.0138889,nan,nan,nan,nan,nan,nan,nan,nan,nan,nan,nan,nan,nan,nan,nan,nan,nan,nan,nan,nan,nan,nan,nan,nan,nan,nan,nan,nan,nan,nan,nan,nan,nan,nan,nan,nan,nan,nan,nan,nan,nan,nan,nan,nan,nan,nan,nan,nan,nan,nan,nan,nan,nan,nan,nan,nan,nan,nan,nan,nan,nan,nan,nan,nan,nan,nan,nan,nan,nan,nan,nan,nan,nan,nan,nan,nan,nan,nan,nan,nan,nan,nan,nan,nan,nan,nan,nan,nan,nan,nan,nan,nan,nan,nan,nan,nan,nan,nan,nan,nan,nan,nan,nan,nan,nan,nan,nan,nan,nan,nan,nan,nan,nan,nan,nan,nan,nan,nan,nan,nan,nan,nan,nan
0.0293821,0.0284737,0.0515408,0.0709737,0.0588136,0.0559435,0.0548463,0.0511735,0.0511608,0.0346173,0.0257197,0.052654,0.0510753,0.14491,0.142167,0.313213,0.322423,0.309901,0.305458,0.271579,0.152277,0.133662,0.10931,0.130695,0.145329,0.129935,0.14053,0.0614365,0.0514231,0.112626,0.127488,0.165001,0.169078,0.151652,0.122724,0.112448,0.123333,0.1647,0.129647,0.102873,0.121979,0.112072,0.110095,0.109815,0.0546204,0.0520665,0.0697681,0.0708408,0.0889223,0.0648533,0.127274,0.119145,0.117928,0.111005,0.141563,0.0927324,0.101233,0.0639816,0.0687858,0.0648622,0.0690605,0.0713165,0.070011,0.077287,0.0876367,0.0675629,0.0785009,0.0872372,0.0872668,0.0799648,0.0481353,0.0315269,0.0277085,0.0134388,0.0510073,0.0416652,0.0387028,0.0332588,0.0338532,0.035565,0.0174175,0.0178229,0.0236229,0.0226813,0.0163978,0.0190506,0.018652,0.035179,0.0418911,0.0481777,0.0491728,0.0500172,0.0487807,0.0472341,0.0438066,0.0224449,0.0208172,0.0193336,0.00700772,0.00620632,0.0045402,0.00403953,0.00242334,0.0029487,0.00419245,0.00543898,0.00632351,0.0126265,0.0145566,0.0157412,0.0287656,0.0334852,0.034165,0.028568,0.0332016,0.027816,0.0364118,0.0250066,0.0796083,0.163634,0.352665,1,1,1,1,0.691464,0.476475,0.27336,0.0406823,0.0261921,0.0239459,0.0223235,0.020855,0.0204994,0.0211456,0.0146729,0.0153884,0.0162234,0.0144007,0.0106505,0.00476227,0.0024355,0.000866972,4.47739e-05,2.22276e-06,2.89745e-08,2.89745e-08,1.24176e-08,4.13921e-09,8.27842e-09,8.27842e-09,8.27842e-09,8.27842e-09,8.27842e-09,8.27842e-09,0.000379702,0.00211456,0.00289956,0.00469583,0.0341726,0.0344421,0.0348301,0.0250254,0.0235526,0.0405202,0.048325,0.0583279,0.0468485,0.0485612,0.0350048,0.059485,0.0403673,0.034989,0.0344973,0.0340144,0.0276213,0.0280122,0.0265052,nan,nan,nan,nan,nan,nan,nan,nan,nan,nan,nan,nan,nan,nan,nan,nan,nan,nan,nan,nan,nan,nan,nan,nan,nan,nan,nan,nan,nan,nan,nan,nan,nan,nan,nan,nan,nan,nan,nan,nan,nan,nan,nan,nan,nan,nan,nan,nan,nan,nan,nan,nan,nan,nan,nan,nan,nan,nan,nan,nan,nan,nan,nan,nan,nan,nan,nan,nan,nan,nan,nan,nan,nan,nan,nan,nan,nan,nan,nan,nan,nan,nan,nan,nan,nan,nan,nan,nan,nan,nan,nan,nan,nan,nan,nan,nan,nan,nan,nan,nan,nan,nan,nan,nan,nan,nan,nan,nan,nan,nan,nan,nan,nan,nan,nan,nan,nan,nan,nan,nan,nan,nan
