0.0140124,0.0208399,0.0219111,0.0236131,0.0306285,0.0381501,0.0332106,0.0254022,0.0198506,0.0243397,0.026482,0.0300337,0.0359131,0.035813,0.0359941,0.0354233,0.0274996,0.0215855,0.0249494,0.00742144,0.00861203,0.012904,0.0141264,0.0174786,0.0797004,0.0795445,0.0659487,0.0499394,0.03283,0.0757267,0.0955608,0.0628577,0.0428945,0.0439916,0.0424876,0.0459832,0.0428768,0.0413989,0.0282146,0.0163906,0.0235457,0.035459,0.0374811,0.0688451,0.0776704,0.0672339,0.0549671,0.0637494,0.0757016,0.0727821,0.0547314,0.0740466,0.0324876,0.051406,0.0484203,0.0507386,0.0283329,0.0445448,0.0353042,0.0484391,0.0707957,0.0535345,0.0495457,0.0530481,0.0479496,0.0667971,0.0534408,0.0545695,0.0704594,0.0534287,0.0531325,0.0497543,0.0437901,0.0438271,0.0392883,0.0474696,0.0558367,0.0437721,0.0470818,0.0456985,0.0417701,0.0404523,0.047832,0.0440272,0.0426681,0.052411,0.0526764,0.0777199,0.101564,0.101422,0.0609653,0.0569257,0.0518341,0.0472694,0.0470014,0.0556205,0.0505845,0.0443344,0.0517792,0.0622075,0.0500749,0.0617767,0.0547983,0.080099,0.0474157,0.0565906,0.059579,0.0606957,0.0742249,0.061597,0.0613477,0.0607645,0.061942,0.0637188,0.058735,0.0532244,0.0598687,0.0679125,0.0937244,0.145478,0.195222,0.237616,0.243892,0.256659,0.244655,0.165899,0.105292,0.0700011,0.0342978,0.0233912,0.0307732,0.0308318,0.0272238,0.0286931,0.0247279,0.0394777,0.0332345,0.0320967,0.0347648,0.0213269,0.0255754,0.0222553,0.0132978,0.0122869,0.00234966,0.00720355,0.0479683,0.0534986,0.0844344,0.0865569,0.101545,0.124404,0.122215,0.137573,0.122572,0.119334,0.126711,0.137183,0.139498,0.138524,0.125976,0.139857,0.156484,0.198956,0.210469,0.204018,0.213362,0.244023,0.310607,0.352244,0.361006,0.347345,0.382538,0.421843,0.452307,0.495465,1,1,nan,nan,nan,nan,nan,nan,nan,nan,nan,nan,nan,nan,nan,nan,nan,nan,nan,nan,nan,nan,nan,nan,nan,nan,nan,nan,nan,nan,nan,nan,nan,nan,nan,nan,nan,nan,nan,nan,nan,nan,nan,nan,nan,nan,nan,nan,nan,nan,nan,nan,nan,nan,nan,nan,nan,nan,nan,nan,nan,nan,nan,nan,nan,nan,nan,nan,nan,nan,nan,nan,nan,nan,nan,nan,nan,nan,nan,nan,nan,nan,nan,nan,nan,nan,nan,nan,nan,nan,nan,nan,nan,nan,nan,nan,nan,nan,nan,nan,nan,nan,nan,nan,nan,nan,nan,nan,nan,nan,nan,nan,nan,nan,nan,nan,nan,nan,nan,nan,nan,nan,nan,nan
0.0145163,0.0367786,0.0287164,0.0357509,0.0247871,0.0224127,0.0237723,0.0164506,0.0153465,0.0219291,0.0263969,0.0250548,0.020496,0.0350841,0.024006,0.0218362,0.026928,0.0305095,0.0252148,0.00881211,0.0114778,0.0142449,0.026678,0.0285081,0.0783317,0.0802576,0.0610762,0.0433968,0.0317167,0.0716919,0.0706655,0.0978847,0.0639676,0.0576484,0.0609518,0.0459847,0.0463552,0.034128,0.0464136,0.0422939,0.0316384,0.0344006,0.038813,0.0655955,0.0658688,0.0695785,0.0646884,0.0468623,0.0772,0.0523951,0.0774306,0.0607144,0.0331664,0.0303028,0.0374307,0.0338685,0.02723,0.0779902,0.101553,0.110629,0.0647072,0.0557656,0.0503712,0.0375206,0.0580202,0.0639513,0.0646865,0.0687354,0.0613756,0.0492799,0.040694,0.0453959,0.0444721,0.0410624,0.044798,0.0383563,0.0376199,0.0566944,0.0466361,0.0539033,0.0383956,0.0398559,0.0397917,0.0408099,0.0493865,0.0513467,0.0523503,0.0527141,0.0771159,0.0768956,0.0674808,0.0427242,0.0443382,0.0410981,0.0530666,0.0521828,0.0492539,0.0476691,0.0493818,0.0498152,0.0447967,0.0510315,0.051962,0.0447589,0.0396132,0.0538608,0.0511288,0.0472352,0.0538511,0.0470881,0.0589985,0.0512975,0.0578298,0.0550155,0.0538402,0.0538073,0.055689,0.0609285,0.0808908,0.120051,0.173369,0.213197,0.243923,0.228963,0.243962,0.158454,0.117726,0.0713737,0.0369282,0.0268703,0.0277086,0.0195487,0.0230625,0.0215364,0.0216161,0.0116531,0.0264026,0.0276416,0.0300456,0.0246186,0.0172132,0.0171459,0.0136585,0.010989,0.00226661,0.000868772,0.000564147,0.0185879,0.0378727,0.0535954,0.0543955,0.0765976,0.105215,0.0841637,0.0922649,0.0910078,0.0919721,0.118849,0.0975096,0.114355,0.097868,0.103043,0.129989,0.127345,0.156286,0.157015,0.19892,0.238499,0.273728,0.323528,0.333676,0.322544,0.413009,0.457503,0.345057,0.558589,1,1,nan,nan,nan,nan,nan,nan,nan,nan,nan,nan,nan,nan,nan,nan,nan,nan,nan,nan,nan,nan,nan,nan,nan,nan,nan,nan,nan,nan,nan,nan,nan,nan,nan,nan,nan,nan,nan,nan,nan,nan,nan,nan,nan,nan,nan,nan,nan,nan,nan,nan,nan,nan,nan,nan,nan,nan,nan,nan,nan,nan,nan,nan,nan,nan,nan,nan,nan,nan,nan,nan,nan,nan,nan,nan,nan,nan,nan,nan,nan,nan,nan,nan,nan,nan,nan,nan,nan,nan,nan,nan,nan,nan,nan,nan,nan,nan,nan,nan,nan,nan,nan,nan,nan,nan,nan,nan,nan,nan,nan,nan,nan,nan,nan,nan,nan,nan,nan,nan,nan,nan,nan,nan
0.0181709,0.028563,0.0357372,0.0276936,0.0242066,0.0256209,0.0240083,0.0248373,0.0145574,0.0210844,0.0250369,0.0319337,0.0267996,0.0202488,0.0321203,0.0322453,0.0376196,0.03838,0.0266453,0.0145301,0.0113826,0.0219062,0.0406568,0.0286488,0.0717802,0.0567086,0.0565802,0.031128,0.0301218,0.0187995,0.0335417,0.0628053,0.0720079,0.0684631,0.0576716,0.0221519,0.0341897,0.0460111,0.0489282,0.0372595,0.039352,0.0362782,0.0351092,0.0670018,0.0698587,0.0901038,0.0551679,0.0425445,0.0484515,0.0773804,0.0503927,0.0534254,0.0295294,0.0296082,0.0355854,0.0335512,0.0342091,0.0723639,0.112574,0.075276,0.0772536,0.0502114,0.0487577,0.043655,0.0540841,0.0723711,0.0585883,0.0660421,0.0634899,0.0595979,0.0419296,0.0426975,0.0420998,0.0325607,0.0457465,0.0425177,0.0363926,0.0493068,0.0568839,0.0485495,0.0355353,0.037138,0.0397862,0.0498984,0.0401575,0.0420761,0.0372795,0.0439311,0.0395566,0.0393604,0.0438125,0.0395694,0.0324092,0.0228052,0.0247455,0.021235,0.0246031,0.0243708,0.0242342,0.0247792,0.02835,0.0270682,0.0293293,0.0316576,0.0316458,0.0323835,0.0364671,0.0357591,0.0389104,0.040155,0.0419752,0.0350202,0.0342944,0.0254634,0.0234192,0.0223118,0.0242831,0.028236,0.0507294,0.103078,0.156617,0.211799,0.216348,0.238095,0.221301,0.159876,0.107795,0.0680274,0.0360018,0.0218355,0.0189286,0.0188567,0.0134134,0.0126171,0.0118996,0.012282,0.0114979,0.013638,0.0149086,0.0130345,0.0134843,0.0124388,0.0119074,0.00605445,0.00262347,0.000880085,0.00036042,1.36594e-06,3.72951e-16,0.0110545,0.0353228,0.0265436,0.0380824,0.0324009,0.0409109,0.0616433,0.0370225,0.0402862,0.039264,0.0340096,0.0742903,0.0563621,0.0487561,0.0857002,0.0914319,0.106179,0.0982183,0.130876,0.127132,0.144517,0.0867875,0.0953828,0.00213056,0.135384,0.234822,0.00357342,0.00357342,0.00213634,nan,nan,nan,nan,nan,nan,nan,nan,nan,nan,nan,nan,nan,nan,nan,nan,nan,nan,nan,nan,nan,nan,nan,nan,nan,nan,nan,nan,nan,nan,nan,nan,nan,nan,nan,nan,nan,nan,nan,nan,nan,nan,nan,nan,nan,nan,nan,nan,nan,nan,nan,nan,nan,nan,nan,nan,nan,nan,nan,nan,nan,nan,nan,nan,nan,nan,nan,nan,nan,nan,nan,nan,nan,nan,nan,nan,nan,nan,nan,nan,nan,nan,nan,nan,nan,nan,nan,nan,nan,nan,nan,nan,nan,nan,nan,nan,nan,nan,nan,nan,nan,nan,nan,nan,nan,nan,nan,nan,nan,nan,nan,nan,nan,nan,nan,nan,nan,nan,nan,nan,nan,nan
0.0178776,0.0332277,0.0281331,0.0301364,0.0249323,0.0372972,0.0284317,0.0290998,0.0186811,0.0236155,0.0370969,0.0324248,0.0321872,0.0182904,0.0289658,0.030223,0.0342509,0.0295447,0.0216316,0.0209396,0.0170007,0.0259632,0.038599,0.0465549,0.0405692,0.0402387,0.027871,0.0254133,0.0157194,0.0271253,0.0314224,0.0507081,0.0689886,0.0585593,0.0621713,0.0248412,0.0306173,0.0317586,0.0366589,0.0395471,0.0400398,0.0416439,0.0407899,0.032706,0.0921055,0.0860602,0.0593109,0.0457031,0.0410828,0.05718,0.0520555,0.0497159,0.0393767,0.0318362,0.0467201,0.0458264,0.0406796,0.08806,0.0733576,0.0713882,0.0471453,0.0579209,0.0415003,0.0382612,0.0668458,0.0712191,0.0573507,0.0706871,0.0538741,0.0497616,0.0406361,0.0345909,0.0297599,0.0385665,0.0319174,0.0413974,0.0329776,0.0394826,0.0352346,0.0429198,0.0433366,0.0421528,0.0451114,0.0410825,0.0401568,0.0287819,0.0346713,0.0399018,0.0387694,0.0370808,0.0302958,0.033709,0.0239191,0.0165714,0.0154011,0.0194242,0.0165207,0.0199545,0.019773,0.0176935,0.0195813,0.0174824,0.0150625,0.0176147,0.0193197,0.0201693,0.0144337,0.0156182,0.0164195,0.0164451,0.0172755,0.0163599,0.0150946,0.0136624,0.0129846,0.0133234,0.00945864,0.0124015,0.0328193,0.0804084,0.11395,0.197505,0.174224,0.199858,0.198012,0.139856,0.107129,0.0614694,0.0275768,0.016593,0.0084034,0.00942781,0.0118415,0.0129255,0.0143059,0.0136136,0.00931605,0.00732521,0.0103899,0.0131484,0.01575,0.0153369,0.0119654,0.00855054,0.00482519,0.00121828,0.00013706,1.36594e-06,0,1.88148e-16,0,1.82586e-16,0.0113148,0.011948,0,0.00818198,-1.83831e-16,0.00440891,0.0127604,1.91458e-16,0.0127008,0.00506609,1.99346e-16,0.0244064,0,7.09579e-09,0.0536739,7.09579e-09,7.09579e-09,2.87202e-06,4.40649e-06,4.41003e-06,1.46351e-05,3.07691e-05,3.07709e-05,3.07674e-05,nan,nan,nan,nan,nan,nan,nan,nan,nan,nan,nan,nan,nan,nan,nan,nan,nan,nan,nan,nan,nan,nan,nan,nan,nan,nan,nan,nan,nan,nan,nan,nan,nan,nan,nan,nan,nan,nan,nan,nan,nan,nan,nan,nan,nan,nan,nan,nan,nan,nan,nan,nan,nan,nan,nan,nan,nan,nan,nan,nan,nan,nan,nan,nan,nan,nan,nan,nan,nan,nan,nan,nan,nan,nan,nan,nan,nan,nan,nan,nan,nan,nan,nan,nan,nan,nan,nan,nan,nan,nan,nan,nan,nan,nan,nan,nan,nan,nan,nan,nan,nan,nan,nan,nan,nan,nan,nan,nan,nan,nan,nan,nan,nan,nan,nan,nan,nan,nan,nan,nan,nan,nan,nan,nan
0.00720165,0.0158495,0.027696,0.0304342,0.0343354,0.0381171,0.0283446,0.0356158,0.0301032,0.017051,0.0175507,0.0146952,0.0342135,0.0293532,0.0229546,0.0307998,0.0271283,0.0384926,0.0286294,0.0240955,0.0270106,0.0366642,0.0442864,0.0475131,0.0257778,0.0246311,0.0202044,0.0232058,0.0190001,0.0319985,0.0444389,0.0533801,0.0820684,0.0611672,0.0878649,0.0611562,0.0616805,0.0370105,0.0359629,0.0512972,0.0433736,0.0474172,0.0347511,0.045791,0.0910962,0.0881622,0.0948389,0.0629415,0.0624404,0.0857356,0.0907444,0.0559701,0.0605127,0.0591892,0.0440756,0.0460426,0.0489354,0.0495323,0.0546716,0.0388225,0.0874221,0.0918258,0.084591,0.08983,0.0409208,0.05159,0.069505,0.0548953,0.0506272,0.0456689,0.040506,0.0317689,0.0330575,0.0294269,0.0240352,0.0286331,0.0275975,0.0392614,0.0310921,0.0379609,0.0353964,0.0333577,0.0295615,0.0283417,0.0274874,0.0279757,0.0246546,0.0249253,0.0280704,0.0351846,0.0291834,0.0207662,0.0235679,0.0132463,0.0125962,0.0153488,0.0156473,0.0153807,0.0100817,0.0127504,0.0131352,0.0110114,0.0116673,0.0103212,0.0108472,0.00441261,0.00475577,0.00672509,0.00732705,0.00773629,0.00809771,0.00670761,0.00751118,0.00654613,0.00654129,0.00450692,0.00536644,0.00896255,0.0288836,0.0683394,0.108525,0.189685,0.197556,0.205216,0.205338,0.154963,0.104734,0.0676628,0.0236288,0.0126148,0.0101056,0.0116867,0.0125207,0.0147902,0.0141134,0.0134115,0.00891399,0.00679771,0.0109646,0.0177062,0.0219113,0.0259118,0.0124726,0.00843489,0.0050575,0.00167575,0.000101357,0.00011701,1.93375e-16,1.89039e-16,1.86255e-16,1.84923e-16,1.89663e-16,1.95195e-16,1.87703e-16,1.86524e-16,1.86358e-16,0,1.93282e-16,1.86837e-16,0,0,1.9206e-16,5.32184e-09,1.41916e-08,1.41916e-08,7.09579e-09,5.32184e-09,8.86974e-09,7.09579e-09,1.41916e-08,5.32184e-09,3.5479e-09,5.32184e-09,3.5479e-09,5.32184e-09,nan,nan,nan,nan,nan,nan,nan,nan,nan,nan,nan,nan,nan,nan,nan,nan,nan,nan,nan,nan,nan,nan,nan,nan,nan,nan,nan,nan,nan,nan,nan,nan,nan,nan,nan,nan,nan,nan,nan,nan,nan,nan,nan,nan,nan,nan,nan,nan,nan,nan,nan,nan,nan,nan,nan,nan,nan,nan,nan,nan,nan,nan,nan,nan,nan,nan,nan,nan,nan,nan,nan,nan,nan,nan,nan,nan,nan,nan,nan,nan,nan,nan,nan,nan,nan,nan,nan,nan,nan,nan,nan,nan,nan,nan,nan,nan,nan,nan,nan,nan,nan,nan,nan,nan,nan,nan,nan,nan,nan,nan,nan,nan,nan,nan,nan,nan,nan,nan,nan,nan,nan,nan,nan,nan
0.00895644,0.00752455,0.0081941,0.0144398,0.0162122,0.0249613,0.0348887,0.0286489,0.0308437,0.0184648,0.0166698,0.0175271,0.0332733,0.0342319,0.0347113,0.0388722,0.040599,0.0352163,0.0440303,0.027862,0.0369866,0.0477502,0.0407484,0.0462005,0.0283845,0.0279554,0.0231002,0.0251836,0.0316492,0.0461335,0.0474518,0.0662508,0.1018,0.0967359,0.0826133,0.0611412,0.0595278,0.0842011,0.09964,0.0987059,0.0525352,0.0494478,0.0378968,0.0409493,0.0369424,0.0391994,0.0324803,0.0413364,0.0425449,0.0877357,0.0922881,0.0794999,0.0643611,0.0600537,0.0553839,0.0493463,0.0498853,0.0554681,0.0374465,0.0388118,0.0746905,0.0840547,0.118275,0.112219,0.0583794,0.0616267,0.0585774,0.0564564,0.0483997,0.0448484,0.0353707,0.0333418,0.0354643,0.0389912,0.0406813,0.031618,0.0229737,0.0365813,0.0231266,0.0175074,0.0218931,0.0233002,0.0210222,0.0196929,0.019386,0.0248304,0.022362,0.0272147,0.0317837,0.0294672,0.0230924,0.0214913,0.012504,0.0114841,0.0109584,0.010983,0.0143932,0.009916,0.0130318,0.00688541,0.00907468,0.00939581,0.00341673,0.00171701,0.00206764,0.00141068,0.00193294,0.0015011,0.00158661,0.00293892,0.00369581,0.00441674,0.00436495,0.00350597,0.00481717,0.00301533,0.00410536,0.00732982,0.0260832,0.0675692,0.104643,0.193514,0.187839,0.209372,0.237516,0.149677,0.0989072,0.0640403,0.0240055,0.0104699,0.0085092,0.00864349,0.0152,0.017627,0.0166654,0.0181478,0.0178475,0.00997087,0.01342,0.0164398,0.027081,0.0243651,0.015036,0.00841935,0.00492123,0.00252214,0.000502077,0.000115314,2.04867e-16,1.96565e-16,1.89922e-16,-1.8758e-16,1.97137e-16,2.00724e-16,0,1.87987e-16,1.88399e-16,0,0,8.86974e-09,8.86974e-09,1.06437e-08,1.06437e-08,1.06437e-08,8.86974e-09,2.30613e-08,1.41916e-08,1.95134e-08,1.06437e-08,7.09579e-09,3.5479e-09,5.32184e-09,5.32184e-09,5.32184e-09,7.09579e-09,5.32184e-09,nan,nan,nan,nan,nan,nan,nan,nan,nan,nan,nan,nan,nan,nan,nan,nan,nan,nan,nan,nan,nan,nan,nan,nan,nan,nan,nan,nan,nan,nan,nan,nan,nan,nan,nan,nan,nan,nan,nan,nan,nan,nan,nan,nan,nan,nan,nan,nan,nan,nan,nan,nan,nan,nan,nan,nan,nan,nan,nan,nan,nan,nan,nan,nan,nan,nan,nan,nan,nan,nan,nan,nan,nan,nan,nan,nan,nan,nan,nan,nan,nan,nan,nan,nan,nan,nan,nan,nan,nan,nan,nan,nan,nan,nan,nan,nan,nan,nan,nan,nan,nan,nan,nan,nan,nan,nan,nan,nan,nan,nan,nan,nan,nan,nan,nan,nan,nan,nan,nan,nan,nan,nan,nan,nan
0.0130078,0.0131211,0.0137473,0.00998067,0.0123842,0.0137092,0.0264501,0.0269284,0.032238,0.0278881,0.0187709,0.017642,0.0329604,0.0276454,0.0431263,0.0366624,0.0565737,0.056188,0.0523882,0.0393446,0.0538583,0.0719049,0.0560297,0.0703611,0.0661009,0.066141,0.0219145,0.0270465,0.0354539,0.0378499,0.0515118,0.0801801,0.0848641,0.0755776,0.0702487,0.0455152,0.0599965,0.0700468,0.0943725,0.0738027,0.0517461,0.0436758,0.0412582,0.0355047,0.0295236,0.0283327,0.0285038,0.0263937,0.0379034,0.0837022,0.0781208,0.0952278,0.0772917,0.103593,0.0929819,0.084005,0.0516755,0.0541799,0.0487204,0.049899,0.0609696,0.0934362,0.0924598,0.0879376,0.0430701,0.0470382,0.0454283,0.0604305,0.0497656,0.0424245,0.0470801,0.0319518,0.032481,0.0328081,0.038359,0.0298745,0.0160411,0.0174661,0.0192099,0.0132356,0.0152947,0.0196774,0.0212267,0.017984,0.0197518,0.0194607,0.0227873,0.0279465,0.0274775,0.0227431,0.0229506,0.0226009,0.0216514,0.010123,0.00997372,0.00975573,0.0123085,0.0112183,0.0100361,0.00936556,0.00842014,0.00372585,0.00303742,0.00364482,0.00229478,0.00141404,0.00142572,0.00100225,0.00224225,0.00286222,0.00286926,0.00420423,0.0058157,0.00713469,0.00718052,0.0057899,0.00547771,0.00855843,0.0281621,0.0709214,0.109452,0.176228,0.193323,0.248554,0.253425,0.146519,0.114129,0.0780035,0.0491499,0.025596,0.0219424,0.0229703,0.023745,0.0183211,0.019305,0.0308577,0.0286165,0.0152932,0.0205018,0.0249851,0.0280356,0.0274152,0.0179921,0.00848267,0.00741122,0.0026428,0.000394374,0.00010418,0,1.90909e-16,1.87262e-16,0,1.89452e-16,-1.92464e-16,0,1.41916e-08,1.41916e-08,1.41916e-08,1.87402e-16,8.86974e-09,8.86974e-09,5.32184e-09,1.06437e-08,1.06437e-08,1.06437e-08,1.59655e-08,2.30613e-08,1.24176e-08,1.06437e-08,3.5479e-09,5.32184e-09,3.5479e-09,5.32184e-09,3.5479e-09,5.32184e-09,7.09579e-09,5.32184e-09,nan,nan,nan,nan,nan,nan,nan,nan,nan,nan,nan,nan,nan,nan,nan,nan,nan,nan,nan,nan,nan,nan,nan,nan,nan,nan,nan,nan,nan,nan,nan,nan,nan,nan,nan,nan,nan,nan,nan,nan,nan,nan,nan,nan,nan,nan,nan,nan,nan,nan,nan,nan,nan,nan,nan,nan,nan,nan,nan,nan,nan,nan,nan,nan,nan,nan,nan,nan,nan,nan,nan,nan,nan,nan,nan,nan,nan,nan,nan,nan,nan,nan,nan,nan,nan,nan,nan,nan,nan,nan,nan,nan,nan,nan,nan,nan,nan,nan,nan,nan,nan,nan,nan,nan,nan,nan,nan,nan,nan,nan,nan,nan,nan,nan,nan,nan,nan,nan,nan,nan,nan,nan,nan
0.00806442,0.00970134,0.0120968,0.00664176,0.00978633,0.0120664,0.0255024,0.0302581,0.0285906,0.0388487,0.0281259,0.0176486,0.0302049,0.0402548,0.0439125,0.0395598,0.0596435,0.0736005,0.0889353,0.0887558,0.0761215,0.0586314,0.0677361,0.0699729,0.0760778,0.0498136,0.0259534,0.0280276,0.0335062,0.0350782,0.0600049,0.0866274,0.0759495,0.0635636,0.0650192,0.0472779,0.0439654,0.0668527,0.0767762,0.0702932,0.0345208,0.0531571,0.0527027,0.0405958,0.0287607,0.0282028,0.0272546,0.0233335,0.0304034,0.0349158,0.0408582,0.0582697,0.0638559,0.0800502,0.102377,0.0927427,0.0525388,0.0523927,0.0466293,0.0541136,0.0380958,0.0285993,0.0297819,0.0323775,0.0323163,0.0395898,0.0612231,0.0550366,0.0536039,0.0442994,0.0347468,0.0374967,0.0218336,0.0237848,0.0309595,0.0339062,0.0106503,0.00983597,0.0103627,0.00933025,0.0109503,0.0151388,0.0142231,0.0197255,0.0160082,0.0121788,0.0163158,0.0221856,0.0287275,0.0314019,0.0217865,0.0231794,0.0244093,0.0231739,0.0356804,0.0359908,0.0359846,0.0186006,0.0107642,0.00999848,0.00825406,0.00700617,0.00565675,0.0040456,0.00420749,0.00302795,0.00268841,0.00273211,0.0040907,0.00469145,0.00441686,0.00463257,0.00689309,0.0071664,0.00788201,0.00681289,0.00793342,0.010207,0.0292832,0.0667534,0.113144,0.186593,0.193523,0.265069,0.254486,0.143131,0.103435,0.0793869,0.0412115,0.0215117,0.0201084,0.0202993,0.0189363,0.021428,0.0220249,0.0197278,0.0232747,0.0276511,0.0240483,0.0294452,0.0252791,0.0223606,0.0177233,0.00819386,0.0072221,0.00192981,0.000653583,0.0001015,0.000116492,0,1.83934e-16,1.86315e-16,0,1.86278e-16,1.82042e-16,1.41916e-08,1.41916e-08,1.41916e-08,0,8.86974e-09,8.86974e-09,5.32184e-09,1.06437e-08,1.06437e-08,7.09579e-09,8.86974e-09,8.86974e-09,8.86974e-09,1.77395e-09,3.5479e-09,3.5479e-09,5.32184e-09,5.32184e-09,5.32184e-09,5.32184e-09,3.5479e-09,7.09579e-09,nan,nan,nan,nan,nan,nan,nan,nan,nan,nan,nan,nan,nan,nan,nan,nan,nan,nan,nan,nan,nan,nan,nan,nan,nan,nan,nan,nan,nan,nan,nan,nan,nan,nan,nan,nan,nan,nan,nan,nan,nan,nan,nan,nan,nan,nan,nan,nan,nan,nan,nan,nan,nan,nan,nan,nan,nan,nan,nan,nan,nan,nan,nan,nan,nan,nan,nan,nan,nan,nan,nan,nan,nan,nan,nan,nan,nan,nan,nan,nan,nan,nan,nan,nan,nan,nan,nan,nan,nan,nan,nan,nan,nan,nan,nan,nan,nan,nan,nan,nan,nan,nan,nan,nan,nan,nan,nan,nan,nan,nan,nan,nan,nan,nan,nan,nan,nan,nan,nan,nan,nan,nan,nan
0.00594638,0.00531399,0.00763868,0.00295717,0.00620648,0.00975346,0.020738,0.028212,0.035348,0.0311108,0.0418434,0.0209805,0.0728205,0.0812263,0.0845709,0.0424183,0.0645909,0.0883186,0.112694,0.0846203,0.0838501,0.0719182,0.0602106,0.075485,0.0499031,0.0471074,0.0441505,0.048433,0.0358939,0.0397443,0.0461352,0.0784656,0.0798329,0.0573663,0.0496215,0.046729,0.0433894,0.0637943,0.072762,0.055314,0.0502634,0.0496883,0.051677,0.0514542,0.0412535,0.0364322,0.0335086,0.0257606,0.0287328,0.0311838,0.0477904,0.0621663,0.0544334,0.0783378,0.0623842,0.0913198,0.0315831,0.0446241,0.0464092,0.0326075,0.045992,0.0469085,0.0199929,0.0183119,0.0346843,0.0388015,0.0528757,0.0636556,0.0502565,0.0474187,0.035467,0.0292295,0.0250201,0.0166278,0.0226233,0.0129916,0.0125047,0.00849953,0.0074954,0.00725369,0.00977049,0.0128747,0.0190371,0.0179006,0.0089454,0.0100157,0.0115008,0.0184639,0.0291851,0.0276507,0.025342,0.0244755,0.0242397,0.02512,0.0339605,0.038188,0.031086,0.0266038,0.0210643,0.017435,0.0122939,0.0101649,0.00939894,0.00863203,0.00814123,0.00695511,0.00691588,0.0066769,0.0061817,0.0202907,0.0204276,0.0298114,0.0302842,0.0295143,0.0158037,0.0305362,0.0319701,0.0361642,0.0298587,0.0683026,0.122035,0.21114,0.21846,0.230529,0.264262,0.144801,0.115829,0.0728062,0.0302101,0.0190876,0.0225623,0.0191457,0.0199015,0.0157792,0.0139573,0.0141826,0.0163547,0.0220124,0.0287116,0.0227037,0.022599,0.0209996,0.0164398,0.00693723,0.00554523,0.00124289,0.000127412,0.000111516,0,0,0,0,0,-1.8572e-16,5.32184e-09,1.41916e-08,1.41916e-08,1.41916e-08,0,1.86463e-16,5.32184e-09,5.32184e-09,5.32184e-09,3.5479e-09,3.5479e-09,3.5479e-09,3.5479e-09,2.25519e-16,1.4591e-16,1.77395e-09,1.77395e-09,5.32184e-09,5.32184e-09,5.32184e-09,3.5479e-09,3.5479e-09,3.5479e-09,nan,nan,nan,nan,nan,nan,nan,nan,nan,nan,nan,nan,nan,nan,nan,nan,nan,nan,nan,nan,nan,nan,nan,nan,nan,nan,nan,nan,nan,nan,nan,nan,nan,nan,nan,nan,nan,nan,nan,nan,nan,nan,nan,nan,nan,nan,nan,nan,nan,nan,nan,nan,nan,nan,nan,nan,nan,nan,nan,nan,nan,nan,nan,nan,nan,nan,nan,nan,nan,nan,nan,nan,nan,nan,nan,nan,nan,nan,nan,nan,nan,nan,nan,nan,nan,nan,nan,nan,nan,nan,nan,nan,nan,nan,nan,nan,nan,nan,nan,nan,nan,nan,nan,nan,nan,nan,nan,nan,nan,nan,nan,nan,nan,nan,nan,nan,nan,nan,nan,nan,nan,nan,nan
0.00425061,0.00539325,0.00533171,0.00207047,0.0054516,0.00900125,0.0124386,0.0179425,0.0317068,0.0410087,0.0364464,0.0208009,0.0731931,0.0797228,0.0851149,0.0622463,0.137327,0.137807,0.118657,0.115363,0.0979273,0.0827798,0.0481822,0.0590259,0.0418739,0.0444238,0.0454724,0.0391703,0.0533874,0.0395704,0.100078,0.0890343,0.0869497,0.0557758,0.0502927,0.0201052,0.0422574,0.0695642,0.0619133,0.0725715,0.0488295,0.0252203,0.0481036,0.0507471,0.0410077,0.034754,0.0360738,0.0279428,0.0371218,0.0338639,0.0623007,0.0599968,0.0600012,0.0497055,0.0533043,0.0490642,0.0297701,0.0294674,0.035381,0.0262798,0.0436055,0.0434263,0.0234398,0.0378171,0.0418432,0.0411595,0.0499642,0.0575546,0.0454327,0.0393408,0.0398744,0.0336388,0.0226263,0.024472,0.0177031,0.0107225,0.0112492,0.0117901,0.01099,0.00729855,0.00930137,0.0181672,0.0181053,0.0190293,0.00503386,0.00931614,0.0102829,0.0123627,0.0246558,0.0262564,0.0243895,0.0260281,0.024452,0.0231971,0.0288737,0.0342361,0.027307,0.0318416,0.0264146,0.0287865,0.0262148,0.028633,0.0280571,0.027544,0.0113738,0.0109711,0.010253,0.0102535,0.00946121,0.0232194,0.0227133,0.0198216,0.0311479,0.0305571,0.0171656,0.0217541,0.0315042,0.0352043,0.0508861,0.0782799,0.111914,0.214131,0.212192,0.216437,0.232293,0.145708,0.109201,0.0605851,0.0234365,0.0223869,0.0198654,0.0162883,0.015793,0.0161684,0.0100881,0.0106121,0.0126706,0.0170206,0.0154512,0.0139718,0.012423,0.00889278,0.0061984,0.00417833,0.00210977,0.000946118,0.00013777,0.00013052,1.96011e-16,0,0,1.88149e-16,0,1.9105e-16,5.32184e-09,5.32184e-09,5.32184e-09,0,2.05769e-16,2.02101e-16,0,2.16562e-16,0,0,3.5479e-09,3.5479e-09,3.5479e-09,3.5479e-09,3.5479e-09,3.5479e-09,1.77395e-09,5.32184e-09,7.09579e-09,5.32184e-09,5.32184e-09,3.5479e-09,nan,nan,nan,nan,nan,nan,nan,nan,nan,nan,nan,nan,nan,nan,nan,nan,nan,nan,nan,nan,nan,nan,nan,nan,nan,nan,nan,nan,nan,nan,nan,nan,nan,nan,nan,nan,nan,nan,nan,nan,nan,nan,nan,nan,nan,nan,nan,nan,nan,nan,nan,nan,nan,nan,nan,nan,nan,nan,nan,nan,nan,nan,nan,nan,nan,nan,nan,nan,nan,nan,nan,nan,nan,nan,nan,nan,nan,nan,nan,nan,nan,nan,nan,nan,nan,nan,nan,nan,nan,nan,nan,nan,nan,nan,nan,nan,nan,nan,nan,nan,nan,nan,nan,nan,nan,nan,nan,nan,nan,nan,nan,nan,nan,nan,nan,nan,nan,nan,nan,nan,nan,nan,nan,nan
0.00146217,0.00189773,0.000715661,0.00455286,0.00745579,0.0102932,0.0131806,0.0385276,0.0386733,0.0309587,0.0418711,0.0212869,0.0809168,0.0828661,0.0619646,0.0673485,0.13788,0.137586,0.0882453,0.0800286,0.119654,0.0743838,0.0436947,0.0570262,0.0416815,0.0452034,0.0424834,0.0429779,0.0428561,0.0365491,0.0930733,0.0967628,0.0816814,0.0475407,0.0465879,0.0197362,0.0422917,0.0421468,0.0671271,0.0483612,0.0466912,0.0458645,0.0479268,0.0371746,0.0370949,0.0402139,0.0500445,0.0599242,0.0702622,0.0432895,0.0549463,0.0670333,0.0632992,0.0461387,0.0420334,0.0470316,0.031653,0.0225119,0.023513,0.0324985,0.0303167,0.0442998,0.0232696,0.0396822,0.0429627,0.050866,0.059442,0.0481671,0.0425039,0.0364377,0.0336394,0.0219275,0.0272962,0.0183367,0.011589,0.01108,0.0111837,0.00778276,0.0106765,0.0103895,0.00615911,0.0169305,0.0173638,0.0174667,0.00213932,0.00304405,0.00435188,0.00593185,0.00679346,0.0212959,0.0239031,0.0193501,0.0220949,0.0223626,0.0258359,0.0280968,0.0308596,0.0259663,0.029348,0.0270049,0.0326877,0.0316132,0.03012,0.0320523,0.031691,0.0169404,0.0189467,0.036642,0.0361562,0.0354371,0.0288906,0.0272842,0.023428,0.0269324,0.0183756,0.023365,0.022115,0.0339746,0.0482617,0.066768,0.113314,0.204895,0.198625,0.225173,0.254993,0.146914,0.102429,0.0560871,0.0220571,0.015359,0.016741,0.0128251,0.0109576,0.0104701,0.0111759,0.0107167,0.0130066,0.0135041,0.0138723,0.0121581,0.0108486,0.00690122,0.00521525,0.00314645,0.00142363,0.000823086,0.000167395,8.56994e-06,2.06872e-16,1.99208e-16,-1.90954e-16,0,1.96787e-16,0.00140802,0.0013659,0.00141824,0.00175475,0.00192487,0.00215745,0.0024377,0.00120483,3.74409e-05,0,0,3.5479e-09,3.5479e-09,3.5479e-09,3.5479e-09,2.32387e-07,2.30613e-07,2.32387e-07,5.32184e-09,7.09579e-09,5.32184e-09,1.77395e-09,5.32184e-09,nan,nan,nan,nan,nan,nan,nan,nan,nan,nan,nan,nan,nan,nan,nan,nan,nan,nan,nan,nan,nan,nan,nan,nan,nan,nan,nan,nan,nan,nan,nan,nan,nan,nan,nan,nan,nan,nan,nan,nan,nan,nan,nan,nan,nan,nan,nan,nan,nan,nan,nan,nan,nan,nan,nan,nan,nan,nan,nan,nan,nan,nan,nan,nan,nan,nan,nan,nan,nan,nan,nan,nan,nan,nan,nan,nan,nan,nan,nan,nan,nan,nan,nan,nan,nan,nan,nan,nan,nan,nan,nan,nan,nan,nan,nan,nan,nan,nan,nan,nan,nan,nan,nan,nan,nan,nan,nan,nan,nan,nan,nan,nan,nan,nan,nan,nan,nan,nan,nan,nan,nan,nan,nan,nan
0.00184695,0.00137271,0.00219212,0.0120935,0.0142875,0.0156908,0.019937,0.0389929,0.0400733,0.0430801,0.0321088,0.0192709,0.0303233,0.0560078,0.0544018,0.0563645,0.111267,0.0956014,0.0952278,0.115782,0.119271,0.0860479,0.0672852,0.146469,0.147215,0.144477,0.0475528,0.0425362,0.0342932,0.0373445,0.0884222,0.0772767,0.0559188,0.0405437,0.0402283,0.0216013,0.0245492,0.0461539,0.0511968,0.0493728,0.0430668,0.0454808,0.0466298,0.0314123,0.0351372,0.0421817,0.0596995,0.0719678,0.0703729,0.0506559,0.0851408,0.11217,0.0756331,0.0324637,0.0296206,0.0371036,0.0367424,0.0336471,0.0229922,0.0293418,0.0438275,0.0362005,0.0258294,0.026921,0.0394051,0.044221,0.0531868,0.0589895,0.0395251,0.0355925,0.0229774,0.0173756,0.0171921,0.0142098,0.00950914,0.0117427,0.0103936,0.00780311,0.0105834,0.0108038,0.0110711,0.00612013,0.000823193,0.0013437,0.00118964,0.00221315,0.00341005,0.00477666,0.00574327,0.00631698,0.0127694,0.0183715,0.0145514,0.0203504,0.0159034,0.0135569,0.0209819,0.0227301,0.0216272,0.0266214,0.0323632,0.0268619,0.026848,0.0329697,0.0352031,0.0385406,0.0269365,0.0318936,0.0375833,0.0308184,0.0301242,0.0290085,0.0282702,0.0199823,0.0236854,0.0253828,0.0214098,0.0253753,0.0331631,0.0725285,0.120071,0.15345,0.195676,0.252215,0.253645,0.132042,0.0921511,0.0545962,0.0216924,0.00919569,0.0107829,0.0132971,0.0124188,0.0126508,0.0108221,0.0106164,0.0111533,0.0100986,0.0118102,0.0116646,0.0122885,0.00376844,0.00268047,0.00141216,0.000914727,0.000173867,2.02354e-16,2.04748e-16,0,0,1.92958e-16,0.00350437,0.00450275,0.00466775,0.00567725,0.00689048,0.00851815,0.00826657,0.00811907,0.00621836,0.00509703,0.0026114,0.00276315,8.71274e-05,1.12451e-05,9.57932e-08,7.60846e-06,4.05897e-05,8.13142e-05,0.000782976,8.13107e-05,6.33832e-05,1.50555e-05,4.02686e-07,5.32184e-09,5.32184e-09,nan,nan,nan,nan,nan,nan,nan,nan,nan,nan,nan,nan,nan,nan,nan,nan,nan,nan,nan,nan,nan,nan,nan,nan,nan,nan,nan,nan,nan,nan,nan,nan,nan,nan,nan,nan,nan,nan,nan,nan,nan,nan,nan,nan,nan,nan,nan,nan,nan,nan,nan,nan,nan,nan,nan,nan,nan,nan,nan,nan,nan,nan,nan,nan,nan,nan,nan,nan,nan,nan,nan,nan,nan,nan,nan,nan,nan,nan,nan,nan,nan,nan,nan,nan,nan,nan,nan,nan,nan,nan,nan,nan,nan,nan,nan,nan,nan,nan,nan,nan,nan,nan,nan,nan,nan,nan,nan,nan,nan,nan,nan,nan,nan,nan,nan,nan,nan,nan,nan,nan,nan,nan,nan,nan
0.000634195,0.00231363,0.00854449,0.0154069,0.016542,0.0233165,0.0389801,0.0341315,0.0425751,0.0213434,0.0220398,0.0207803,0.0363143,0.0386826,0.0420882,0.0497331,0.0496733,0.0681175,0.0694066,0.101651,0.0955804,0.0852312,0.0546433,0.148076,0.148051,0.146439,0.0682224,0.0448396,0.0505782,0.0426516,0.0337386,0.0388981,0.0304004,0.038596,0.0366794,0.0249471,0.0505712,0.0641428,0.0555612,0.0526649,0.0429784,0.0413517,0.0439271,0.0363694,0.0322074,0.03228,0.0397008,0.0677139,0.0514096,0.0511606,0.0710537,0.106138,0.0726452,0.0347717,0.0312018,0.0354459,0.0510526,0.0428482,0.0317104,0.034184,0.0449072,0.0409295,0.0367669,0.0390482,0.0568717,0.0578501,0.0456924,0.0420383,0.0353009,0.0348114,0.0220244,0.0221365,0.0186501,0.013721,0.00910315,0.0111955,0.0077798,0.0106449,0.00783252,0.000922423,0.00146877,0.00120183,0.00104374,0.00125709,0.00119032,0.00136453,0.00277216,0.00405894,0.0043866,0.00479334,0.00501249,0.0100341,0.0106408,0.0112909,0.00755263,0.00838488,0.00947934,0.0185465,0.0192145,0.0159973,0.0208331,0.0257518,0.0202057,0.0291379,0.0382378,0.0303011,0.0293091,0.0277723,0.0316705,0.0310286,0.0266997,0.0252888,0.0251299,0.0246522,0.0258098,0.0333618,0.0333777,0.0263745,0.0401159,0.0710147,0.123087,0.150712,0.210223,0.209224,0.24798,0.119011,0.0917753,0.0598853,0.0183741,0.0145719,0.0144176,0.0138863,0.0108419,0.012846,0.019016,0.0189097,0.0174207,0.0167926,0.0136499,0.0106295,0.0101376,0.0024909,0.00107023,0.000538128,0.000518335,2.08624e-16,0,2.00927e-16,0.00103907,0.00268357,0.00425069,0.00752115,0.00850528,0.00948232,0.0105828,0.0112465,0.0112643,0.014524,0.0133786,0.0122343,0.0112895,0.00666874,0.00530573,0.00122694,0.000101195,0.000428105,0.000390328,0.000929768,0.000823806,0.000911033,0.00101235,0.00176943,0.00169026,1.53961e-05,1.89812e-07,3.5479e-09,nan,nan,nan,nan,nan,nan,nan,nan,nan,nan,nan,nan,nan,nan,nan,nan,nan,nan,nan,nan,nan,nan,nan,nan,nan,nan,nan,nan,nan,nan,nan,nan,nan,nan,nan,nan,nan,nan,nan,nan,nan,nan,nan,nan,nan,nan,nan,nan,nan,nan,nan,nan,nan,nan,nan,nan,nan,nan,nan,nan,nan,nan,nan,nan,nan,nan,nan,nan,nan,nan,nan,nan,nan,nan,nan,nan,nan,nan,nan,nan,nan,nan,nan,nan,nan,nan,nan,nan,nan,nan,nan,nan,nan,nan,nan,nan,nan,nan,nan,nan,nan,nan,nan,nan,nan,nan,nan,nan,nan,nan,nan,nan,nan,nan,nan,nan,nan,nan,nan,nan,nan,nan,nan,nan
0.0147149,0.0153637,0.0180403,0.0189596,0.0226906,0.0394185,0.0316181,0.042954,0.0388018,0.0208602,0.0202197,0.0404852,0.0404857,0.0414479,0.0338861,0.0347739,0.033665,0.0689585,0.0689112,0.0601562,0.0936873,0.0643781,0.077254,0.153308,0.157555,0.109198,0.0581008,0.0536179,0.0550205,0.0371342,0.0326975,0.0294985,0.0378062,0.0295338,0.0365031,0.0281643,0.0433136,0.0629004,0.0572206,0.042872,0.0412607,0.0261807,0.039729,0.040635,0.0289293,0.0297881,0.0361202,0.0472716,0.0484453,0.0482265,0.0660298,0.0871538,0.0782302,0.0603262,0.0581396,0.0391683,0.0497497,0.0494284,0.0321102,0.0374811,0.0268411,0.0390916,0.037865,0.050357,0.0573621,0.043941,0.0479392,0.0366223,0.0379969,0.0253499,0.0295707,0.0208194,0.0218457,0.0108055,0.0135384,0.00634223,0.00897303,0.00866287,0.0036292,0.00434463,0.00468332,0.00458812,0.00681134,0.00682781,0.00724945,0.00199062,0.00253684,0.00284784,0.00353952,0.00400026,0.0035385,0.00292656,0.00364262,0.00353548,0.00312126,0.00330004,0.00533872,0.00637746,0.0113492,0.0120414,0.0132683,0.0168192,0.0172942,0.01776,0.0201348,0.0214464,0.0267073,0.0307165,0.0236176,0.0256416,0.0257796,0.0247683,0.0244974,0.020469,0.0186607,0.0208426,0.0328769,0.0332366,0.0463787,0.0769401,0.134262,0.192409,0.211341,0.212539,0.207969,0.135364,0.11385,0.0736229,0.0295775,0.011113,0.0132547,0.0167541,0.0151974,0.0139865,0.0170012,0.0154442,0.0154381,0.0144646,0.00907687,0.011268,0.0105417,0.00206041,0.0046155,0.00369157,0.0029455,0.00346346,0.00422407,0.00551378,0.00674675,0.00852638,0.00982971,0.0109032,0.0124674,0.0224488,0.0241331,0.0240895,0.0230333,0.0223585,0.0168471,0.0154516,0.0139653,0.0112713,0.00766203,0.00370846,0.00178958,0.000679568,0.00120112,0.00105896,0.0013445,0.00117425,0.00101968,0.00136884,0.00200611,0.0048643,1.84491e-07,3.5479e-09,nan,nan,nan,nan,nan,nan,nan,nan,nan,nan,nan,nan,nan,nan,nan,nan,nan,nan,nan,nan,nan,nan,nan,nan,nan,nan,nan,nan,nan,nan,nan,nan,nan,nan,nan,nan,nan,nan,nan,nan,nan,nan,nan,nan,nan,nan,nan,nan,nan,nan,nan,nan,nan,nan,nan,nan,nan,nan,nan,nan,nan,nan,nan,nan,nan,nan,nan,nan,nan,nan,nan,nan,nan,nan,nan,nan,nan,nan,nan,nan,nan,nan,nan,nan,nan,nan,nan,nan,nan,nan,nan,nan,nan,nan,nan,nan,nan,nan,nan,nan,nan,nan,nan,nan,nan,nan,nan,nan,nan,nan,nan,nan,nan,nan,nan,nan,nan,nan,nan,nan,nan,nan,nan,nan
0.0249116,0.0241175,0.0241352,0.0216005,0.0348493,0.0322621,0.0420174,0.0341987,0.0222545,0.0339707,0.0440483,0.0478615,0.0358392,0.0391894,0.0331796,0.0327994,0.035533,0.0346887,0.0610621,0.0916572,0.0969675,0.0894451,0.0937554,0.0665538,0.0726559,0.0824794,0.0743595,0.0561765,0.0504124,0.0496063,0.0324795,0.038437,0.0290465,0.0382061,0.0316585,0.0325497,0.0547414,0.0841975,0.0579007,0.0520908,0.0539245,0.033795,0.0378268,0.0371542,0.0394888,0.0248308,0.0282638,0.0256937,0.0396978,0.0393268,0.0551371,0.0567053,0.0735884,0.0725271,0.0576337,0.0344024,0.0412599,0.0545117,0.0367371,0.0398906,0.0376213,0.0324957,0.0386979,0.0353583,0.0352579,0.0337605,0.0295833,0.0404681,0.0362188,0.0337953,0.0280699,0.0242039,0.0185419,0.0107087,0.00734717,0.00867241,0.00909368,0.0062251,0.00485073,0.00538241,0.00533228,0.0060489,0.00774065,0.00894927,0.0102094,0.00996733,0.00944869,0.00360954,0.00390507,0.0034522,0.00391845,0.0039128,0.00295959,0.00314643,0.00301529,0.00247283,0.00236659,0.00348655,0.0036933,0.00477627,0.00492335,0.00741038,0.0139778,0.0145284,0.0154583,0.00942882,0.0104134,0.0179192,0.0184792,0.0185082,0.020511,0.0194268,0.0172582,0.0222409,0.0220376,0.0171579,0.031794,0.0336618,0.0451005,0.0768688,0.109493,0.16546,0.198838,0.208073,0.204345,0.134996,0.105567,0.0671764,0.0368515,0.0172503,0.0113414,0.0116123,0.0149409,0.0150555,0.0147832,0.0149637,0.017985,0.0165102,0.0148473,0.008561,0.00971045,0.0115584,0.0115786,0.0118258,0.0120195,0.0126008,0.0125726,0.0136966,0.0153483,0.0169795,0.0176735,0.0184194,0.0364226,0.0367777,0.0266663,0.0248478,0.0229629,0.0221615,0.021539,0.0226848,0.0248061,0.0153579,0.00714389,0.00424655,0.00185093,0.00182316,0.00210377,0.00254589,0.00231342,0.00174612,0.0033985,0.00330924,0.00255822,0.0061744,1.88695e-05,5.32184e-09,3.5479e-09,nan,nan,nan,nan,nan,nan,nan,nan,nan,nan,nan,nan,nan,nan,nan,nan,nan,nan,nan,nan,nan,nan,nan,nan,nan,nan,nan,nan,nan,nan,nan,nan,nan,nan,nan,nan,nan,nan,nan,nan,nan,nan,nan,nan,nan,nan,nan,nan,nan,nan,nan,nan,nan,nan,nan,nan,nan,nan,nan,nan,nan,nan,nan,nan,nan,nan,nan,nan,nan,nan,nan,nan,nan,nan,nan,nan,nan,nan,nan,nan,nan,nan,nan,nan,nan,nan,nan,nan,nan,nan,nan,nan,nan,nan,nan,nan,nan,nan,nan,nan,nan,nan,nan,nan,nan,nan,nan,nan,nan,nan,nan,nan,nan,nan,nan,nan,nan,nan,nan,nan,nan,nan,nan
0.0335984,0.0270633,0.0260378,0.0268264,0.0391572,0.0368311,0.0348071,0.020366,0.0275118,0.0445501,0.030082,0.0472019,0.0462173,0.0349118,0.108847,0.113538,0.113795,0.0643021,0.0713548,0.0813505,0.0893953,0.103621,0.0951091,0.066414,0.0702317,0.0838352,0.078094,0.0542912,0.0392702,0.0480291,0.0474179,0.0305542,0.0287601,0.0366744,0.0478695,0.056489,0.0747639,0.0855861,0.0814895,0.05743,0.0464225,0.0528598,0.0518066,0.0454605,0.0339438,0.0247244,0.018555,0.0267148,0.0309487,0.032155,0.038376,0.0573583,0.0515122,0.0591428,0.0536619,0.0278762,0.0385405,0.0421747,0.0508596,0.0617459,0.0423491,0.031825,0.0221983,0.0331896,0.0237833,0.034057,0.0288229,0.0309962,0.0340253,0.0327112,0.0283665,0.0230223,0.0205946,0.00526424,0.00577558,0.00874405,0.00951121,0.0102381,0.0174128,0.0142299,0.0181407,0.00820066,0.0107629,0.0146462,0.0105108,0.0124825,0.0145123,0.0137104,0.00579801,0.00607146,0.00922345,0.00892549,0.00854727,0.00431648,0.00398012,0.00440604,0.00347821,0.00282192,0.00276084,0.0027485,0.00297831,0.00353139,0.00400842,0.0052727,0.00625495,0.00643377,0.00665914,0.00683228,0.0068923,0.00823094,0.00911615,0.0155425,0.0210999,0.0217147,0.0180806,0.0170938,0.0168015,0.0172788,0.0465567,0.0714045,0.115447,0.149682,0.194478,0.201685,0.198717,0.168606,0.0973187,0.0642233,0.0309478,0.0128777,0.0119168,0.0122047,0.012641,0.0116009,0.0127175,0.0108335,0.00806947,0.00725115,0.00718263,0.0108152,0.0149414,0.0192675,0.0197758,0.0198388,0.0201323,0.0195132,0.0183362,0.0175471,0.0166266,0.0164016,0.0298104,0.036027,0.0360005,0.0354769,0.034515,0.0240469,0.0229572,0.0233019,0.0254614,0.0334991,0.0193189,0.0187161,0.0081648,0.0057841,0.00235681,0.00353742,0.00374932,0.00386307,0.0133057,0.0107697,0.010818,0.00285237,0.00357248,0.00506836,4.40383e-05,3.5479e-07,3.5479e-09,nan,nan,nan,nan,nan,nan,nan,nan,nan,nan,nan,nan,nan,nan,nan,nan,nan,nan,nan,nan,nan,nan,nan,nan,nan,nan,nan,nan,nan,nan,nan,nan,nan,nan,nan,nan,nan,nan,nan,nan,nan,nan,nan,nan,nan,nan,nan,nan,nan,nan,nan,nan,nan,nan,nan,nan,nan,nan,nan,nan,nan,nan,nan,nan,nan,nan,nan,nan,nan,nan,nan,nan,nan,nan,nan,nan,nan,nan,nan,nan,nan,nan,nan,nan,nan,nan,nan,nan,nan,nan,nan,nan,nan,nan,nan,nan,nan,nan,nan,nan,nan,nan,nan,nan,nan,nan,nan,nan,nan,nan,nan,nan,nan,nan,nan,nan,nan,nan,nan,nan,nan,nan,nan
0.0348311,0.0336275,0.0280478,0.0345607,0.0394143,0.0408357,0.0227679,0.0212167,0.0360196,0.0375385,0.0481304,0.0355329,0.0242904,0.0257632,0.109371,0.111491,0.110304,0.0666404,0.0650264,0.0704423,0.0878274,0.0887653,0.0815101,0.0797549,0.121677,0.0911619,0.0851226,0.0741637,0.0690054,0.0470248,0.0467939,0.0403913,0.0358511,0.048121,0.0536216,0.062684,0.0628203,0.0793596,0.0690747,0.0663041,0.060317,0.0571838,0.0649802,0.0480994,0.0407601,0.0298284,0.0249722,0.025278,0.0284895,0.0275792,0.0318356,0.0537838,0.0512735,0.0517507,0.0258655,0.0217874,0.0191606,0.0191055,0.0474461,0.0618341,0.0488709,0.0211539,0.0261564,0.0295334,0.029329,0.022267,0.0295347,0.0364416,0.0298478,0.0217828,0.0191837,0.0088053,0.00623152,0.00719539,0.00756545,0.00723157,0.0103041,0.011969,0.0212961,0.0217814,0.0165487,0.0129962,0.0172918,0.0175809,0.0171205,0.015818,0.0171338,0.0180794,0.0177544,0.0112359,0.0113593,0.011137,0.0105049,0.00732824,0.00726705,0.00649,0.00619222,0.0052053,0.00407656,0.00390372,0.0026586,0.00194409,0.00245236,0.00197976,0.00259973,0.00328667,0.00330964,0.00359157,0.00304586,0.00459989,0.00577954,0.00736668,0.00791458,0.0159506,0.0164143,0.0172878,0.0171086,0.0147625,0.0201508,0.0518464,0.109557,0.159703,0.193444,0.216976,0.178506,0.144638,0.103732,0.0491492,0.0199189,0.0113353,0.00907094,0.00857047,0.00827312,0.00741564,0.00727921,0.00796665,0.00797484,0.0112452,0.01552,0.0192879,0.0216694,0.0216354,0.0196844,0.0196452,0.0202732,0.0198884,0.0185163,0.0185715,0.0343331,0.0335581,0.0339106,0.0335594,0.0336486,0.0332525,0.00778821,0.0189081,0.0338169,0.0352829,0.035553,0.0248302,0.0321034,0.0191297,0.00746947,0.00662813,0.0080423,0.0100454,0.00999531,0.00906519,0.0143889,0.0107748,0.010852,0.00280502,0.00328577,0.00546799,0.00487156,3.20198e-06,nan,nan,nan,nan,nan,nan,nan,nan,nan,nan,nan,nan,nan,nan,nan,nan,nan,nan,nan,nan,nan,nan,nan,nan,nan,nan,nan,nan,nan,nan,nan,nan,nan,nan,nan,nan,nan,nan,nan,nan,nan,nan,nan,nan,nan,nan,nan,nan,nan,nan,nan,nan,nan,nan,nan,nan,nan,nan,nan,nan,nan,nan,nan,nan,nan,nan,nan,nan,nan,nan,nan,nan,nan,nan,nan,nan,nan,nan,nan,nan,nan,nan,nan,nan,nan,nan,nan,nan,nan,nan,nan,nan,nan,nan,nan,nan,nan,nan,nan,nan,nan,nan,nan,nan,nan,nan,nan,nan,nan,nan,nan,nan,nan,nan,nan,nan,nan,nan,nan,nan,nan,nan,nan,nan
0.0308032,0.0294271,0.0253773,0.0201868,0.018824,0.0154339,0.018702,0.0268746,0.0394134,0.0338483,0.0477565,0.0521457,0.0547913,0.0283773,0.110682,0.0966403,0.112761,0.0634061,0.066516,0.0626971,0.0657969,0.0436962,0.0479444,0.1106,0.102396,0.121076,0.0965724,0.100242,0.10226,0.0225474,0.02847,0.0360446,0.0329592,0.045135,0.0563575,0.0552796,0.0567761,0.129873,0.14947,0.139883,0.078677,0.0728634,0.0581336,0.0427941,0.0395497,0.0251068,0.0199683,0.0222613,0.0286021,0.0319177,0.043503,0.0452069,0.0376685,0.0414131,0.0303182,0.0219829,0.0214595,0.0184722,0.0482219,0.0472844,0.0414186,0.0318724,0.0454034,0.0214838,0.0254177,0.0351329,0.0267202,0.0339437,0.029919,0.0196125,0.017446,0.00934603,0.00789183,0.00849586,0.00922121,0.0109605,0.00974753,0.0118348,0.0238397,0.0210281,0.0198866,0.0159692,0.0168229,0.0195376,0.0245393,0.0199427,0.0181229,0.0205401,0.0167436,0.0166986,0.0177843,0.0187161,0.021338,0.0208359,0.0214922,0.0173716,0.0163375,0.00770282,0.00707466,0.00576783,0.00562872,0.00342425,0.00236182,0.00249377,0.00241589,0.00189271,0.00145445,0.00123763,0.00167534,0.00162223,0.00302981,0.00380691,0.00447389,0.00424679,0.00491041,0.00599583,0.00975366,0.0102293,0.0192033,0.0579582,0.114883,0.169096,0.210845,0.22766,0.226412,0.162395,0.106636,0.0523606,0.0192091,0.0082932,0.00785598,0.00722421,0.00820207,0.00618849,0.00601443,0.00596903,0.00952333,0.01145,0.0133482,0.0178003,0.0205654,0.0212821,0.0207022,0.0187726,0.0259711,0.0328815,0.0324356,0.0322183,0.0239196,0.0309718,0.0262434,0.032136,0.0318818,0.0158181,0.0149719,0.0280119,0.0200163,0.0347078,0.0363064,0.035954,0.0195043,0.0141213,0.0127129,0.0172848,0.0137909,0.0125899,0.00908428,0.00903956,0.01911,0.00911784,0.00986159,0.0123073,0.00384624,0.017344,0.0206958,0.0120726,nan,nan,nan,nan,nan,nan,nan,nan,nan,nan,nan,nan,nan,nan,nan,nan,nan,nan,nan,nan,nan,nan,nan,nan,nan,nan,nan,nan,nan,nan,nan,nan,nan,nan,nan,nan,nan,nan,nan,nan,nan,nan,nan,nan,nan,nan,nan,nan,nan,nan,nan,nan,nan,nan,nan,nan,nan,nan,nan,nan,nan,nan,nan,nan,nan,nan,nan,nan,nan,nan,nan,nan,nan,nan,nan,nan,nan,nan,nan,nan,nan,nan,nan,nan,nan,nan,nan,nan,nan,nan,nan,nan,nan,nan,nan,nan,nan,nan,nan,nan,nan,nan,nan,nan,nan,nan,nan,nan,nan,nan,nan,nan,nan,nan,nan,nan,nan,nan,nan,nan,nan,nan,nan,nan
0.0278311,0.0328322,0.0275395,0.0210205,0.0159108,0.0178394,0.0208485,0.0279808,0.0370002,0.0387742,0.0524612,0.0576553,0.057087,0.0511034,0.0519398,0.0752208,0.0688159,0.0757839,0.0592384,0.051692,0.0624101,0.0407095,0.047866,0.100358,0.113707,0.0867954,0.134092,0.130896,0.100077,0.0420795,0.0498301,0.0395225,0.0366053,0.0442924,0.0562402,0.0519017,0.129065,0.120547,0.144479,0.127273,0.088006,0.109715,0.0749999,0.0754064,0.084094,0.0457754,0.0380286,0.035455,0.0288705,0.0299679,0.0317139,0.0339712,0.0303304,0.0330275,0.0350358,0.0237122,0.0638112,0.0612366,0.054051,0.0360337,0.0458729,0.0447099,0.0260991,0.0239411,0.0327036,0.0348435,0.0301732,0.0329726,0.0338312,0.0247766,0.0169904,0.0153212,0.014,0.0111535,0.0132896,0.0182343,0.0159755,0.0166993,0.0229267,0.0236638,0.0204807,0.0221797,0.0223632,0.0332291,0.0261866,0.029473,0.0204965,0.0228292,0.0227679,0.0269562,0.01995,0.0263449,0.0210753,0.0237391,0.0244893,0.0192612,0.0228686,0.0227894,0.0186008,0.00953008,0.00856733,0.00721236,0.00572691,0.00515532,0.00383834,0.00360664,0.00334254,0.0022673,0.00100104,0.00036334,0.00052103,0.00205373,0.00243159,0.0036221,0.00243817,0.00226974,0.00256897,0.00337579,0.0244511,0.0531735,0.106935,0.151286,0.240866,0.240414,0.225311,0.134036,0.106837,0.0759552,0.0208089,0.0085876,0.00861713,0.00706205,0.00660996,0.00628022,0.00654669,0.00845381,0.0195552,0.0177342,0.0157522,0.014775,0.0129818,0.0141095,0.015632,0.0151392,0.0310385,0.0305028,0.0307043,0.0302563,0.0296236,0.0135288,0.0301262,0.0302393,0.0220035,0.0201652,0.0170455,0.022127,0.03476,0.0277787,0.0188072,0.0190077,0.0103224,0.0104173,0.0113448,0.0230107,0.0244799,0.0255313,0.0155772,0.0135911,0.0147518,0.0177097,0.0225991,0.0294394,0.032634,0.0327541,0.0305233,0.0263307,nan,nan,nan,nan,nan,nan,nan,nan,nan,nan,nan,nan,nan,nan,nan,nan,nan,nan,nan,nan,nan,nan,nan,nan,nan,nan,nan,nan,nan,nan,nan,nan,nan,nan,nan,nan,nan,nan,nan,nan,nan,nan,nan,nan,nan,nan,nan,nan,nan,nan,nan,nan,nan,nan,nan,nan,nan,nan,nan,nan,nan,nan,nan,nan,nan,nan,nan,nan,nan,nan,nan,nan,nan,nan,nan,nan,nan,nan,nan,nan,nan,nan,nan,nan,nan,nan,nan,nan,nan,nan,nan,nan,nan,nan,nan,nan,nan,nan,nan,nan,nan,nan,nan,nan,nan,nan,nan,nan,nan,nan,nan,nan,nan,nan,nan,nan,nan,nan,nan,nan,nan,nan,nan,nan
0.0331297,0.0282311,0.033081,0.0377173,0.0253748,0.0205989,0.0206303,0.0322528,0.0400354,0.0438917,0.0523091,0.0560992,0.0562862,0.0404914,0.0546668,0.080192,0.0784308,0.072262,0.0465907,0.0386974,0.0393483,0.0409714,0.0380494,0.109318,0.113284,0.113475,0.133022,0.12805,0.0821019,0.0506561,0.0518737,0.0493745,0.0381835,0.0333829,0.0478416,0.0469127,0.123082,0.124864,0.114972,0.119563,0.100448,0.106885,0.0983483,0.0875139,0.0713542,0.046855,0.04317,0.0396726,0.0359746,0.031417,0.0331692,0.0439792,0.0363406,0.0349305,0.0369724,0.0358244,0.0555162,0.0630137,0.0537664,0.0296501,0.0469333,0.0457903,0.0459026,0.0233381,0.027185,0.034699,0.0279653,0.0322481,0.0377362,0.0255429,0.0248212,0.0311371,0.0251804,0.027494,0.0157119,0.0225434,0.0269974,0.0261823,0.0361025,0.0245975,0.0269564,0.0227291,0.0256457,0.0280541,0.0333163,0.0255596,0.0227245,0.0190863,0.0273804,0.0217505,0.0236787,0.0271942,0.0248678,0.0260693,0.0251233,0.0275976,0.0244525,0.0216521,0.0283004,0.023619,0.0107997,0.00945629,0.0119262,0.0163291,0.0162399,0.0156224,0.00579719,0.00539976,0.00334128,0.00300514,0.00293048,0.00306165,0.00244913,0.00376476,0.00403483,0.00336497,0.00153674,0.00328538,0.0217593,0.0484448,0.112995,0.224701,0.189242,0.228742,0.239211,0.164348,0.109834,0.0707653,0.0379618,0.0321912,0.0325299,0.0285736,0.0300292,0.0256129,0.027203,0.0294483,0.0294531,0.0232865,0.0152794,0.0118642,0.00882367,0.0111993,0.0129996,0.0165735,0.0189594,0.0233436,0.0256524,0.0309992,0.0296204,0.0224343,0.0214544,0.0305693,0.0209618,0.0159999,0.0230363,0.0176254,0.0233229,0.032351,0.0286936,0.0190383,0.0159216,0.018141,0.0181758,0.0225438,0.0218452,0.0222734,0.0226544,0.0255578,0.0280319,0.0297733,0.0283158,0.0232324,0.0295254,0.0323345,0.0327455,nan,nan,nan,nan,nan,nan,nan,nan,nan,nan,nan,nan,nan,nan,nan,nan,nan,nan,nan,nan,nan,nan,nan,nan,nan,nan,nan,nan,nan,nan,nan,nan,nan,nan,nan,nan,nan,nan,nan,nan,nan,nan,nan,nan,nan,nan,nan,nan,nan,nan,nan,nan,nan,nan,nan,nan,nan,nan,nan,nan,nan,nan,nan,nan,nan,nan,nan,nan,nan,nan,nan,nan,nan,nan,nan,nan,nan,nan,nan,nan,nan,nan,nan,nan,nan,nan,nan,nan,nan,nan,nan,nan,nan,nan,nan,nan,nan,nan,nan,nan,nan,nan,nan,nan,nan,nan,nan,nan,nan,nan,nan,nan,nan,nan,nan,nan,nan,nan,nan,nan,nan,nan,nan,nan,nan
0.0300092,0.0302806,0.0415256,0.0291171,0.0270749,0.0214795,0.024491,0.0562138,0.0488972,0.051997,0.0556364,0.0601587,0.0548314,0.0460681,0.0690408,0.0731038,0.0703527,0.0546064,0.0489193,0.0417821,0.0446379,0.038355,0.0459825,0.0413566,0.0611952,0.124876,0.0936859,0.115978,0.0591036,0.0534332,0.0526227,0.0351466,0.0711562,0.0728762,0.0710104,0.0468591,0.101392,0.0995143,0.115513,0.0602316,0.0926717,0.0806072,0.0817483,0.079271,0.0693403,0.0519359,0.0499935,0.0424474,0.0319136,0.0342736,0.0365087,0.0442094,0.0329766,0.0381707,0.0383588,0.046932,0.0574021,0.053866,0.0402291,0.0315402,0.0266327,0.0196631,0.0284457,0.0342323,0.0338977,0.0269895,0.0314552,0.0427905,0.0357507,0.0337314,0.0273175,0.0344789,0.0325423,0.0330418,0.0190865,0.0265842,0.0288693,0.0364422,0.0283435,0.0358581,0.0199462,0.0262423,0.0207227,0.0244912,0.0187391,0.0210958,0.0190836,0.0252727,0.019839,0.0200908,0.0176155,0.0175098,0.0215479,0.0246399,0.0219529,0.028253,0.0223159,0.0296233,0.0256587,0.0291067,0.0288129,0.0263735,0.0260907,0.0223706,0.0200606,0.0189243,0.00874553,0.00882419,0.00871199,0.007155,0.00734956,0.0062885,0.00686554,0.00650447,0.00618447,0.00604865,0.00623407,0.0102385,0.0170814,0.0432167,0.100668,0.212052,0.2325,0.239483,0.200846,0.184995,0.115093,0.0734257,0.0439707,0.0312371,0.0292327,0.0261231,0.0280384,0.0228893,0.0223651,0.0237422,0.0275138,0.0288699,0.0141206,0.0125232,0.0159281,0.0240912,0.0346087,0.0310587,0.0229897,0.020885,0.0184098,0.0258055,0.0319219,0.0308728,0.0166635,0.0221627,0.0183847,0.0247093,0.0185444,0.0135477,0.0224492,0.0334343,0.0261651,0.0216616,0.0235698,0.0270952,0.026336,0.0247694,0.0235489,0.0238579,0.0237111,0.0221069,0.0252204,0.0283484,0.029608,0.0278179,0.022762,0.00496081,0.00134404,0.000219331,nan,nan,nan,nan,nan,nan,nan,nan,nan,nan,nan,nan,nan,nan,nan,nan,nan,nan,nan,nan,nan,nan,nan,nan,nan,nan,nan,nan,nan,nan,nan,nan,nan,nan,nan,nan,nan,nan,nan,nan,nan,nan,nan,nan,nan,nan,nan,nan,nan,nan,nan,nan,nan,nan,nan,nan,nan,nan,nan,nan,nan,nan,nan,nan,nan,nan,nan,nan,nan,nan,nan,nan,nan,nan,nan,nan,nan,nan,nan,nan,nan,nan,nan,nan,nan,nan,nan,nan,nan,nan,nan,nan,nan,nan,nan,nan,nan,nan,nan,nan,nan,nan,nan,nan,nan,nan,nan,nan,nan,nan,nan,nan,nan,nan,nan,nan,nan,nan,nan,nan,nan,nan,nan,nan
0.0247883,0.0248071,0.0298143,0.0268022,0.025823,0.0230574,0.0394234,0.0712523,0.0651487,0.0576306,0.0676598,0.062279,0.0883059,0.0763614,0.0690916,0.0645528,0.0527737,0.0453591,0.0303979,0.0260955,0.0430257,0.049688,0.0430883,0.038867,0.0596717,0.12571,0.129646,0.129565,0.0817659,0.0669124,0.0506842,0.0385679,0.0689353,0.0694892,0.0670801,0.0485532,0.0486937,0.0466655,0.0470302,0.0595279,0.0621656,0.0610413,0.0560137,0.0537491,0.055519,0.0538849,0.0426517,0.041358,0.0360389,0.0288001,0.0302747,0.0325724,0.0316402,0.0377978,0.0444488,0.0426946,0.0488242,0.0485736,0.0349733,0.0310063,0.0304258,0.0409223,0.0306578,0.0282589,0.034357,0.0357125,0.0435156,0.032134,0.0453597,0.0346529,0.0345429,0.0343815,0.0286167,0.0246704,0.024152,0.0289252,0.0231455,0.0260976,0.0206083,0.0201432,0.0190831,0.0196356,0.015439,0.0161948,0.0130558,0.015533,0.0230842,0.0239412,0.0239377,0.0161345,0.0177609,0.0212581,0.0245586,0.0248008,0.0240399,0.0221485,0.0227143,0.0196893,0.0279541,0.0297867,0.0295257,0.0308087,0.0281674,0.0234367,0.032206,0.0315427,0.0168826,0.0167159,0.0115091,0.0115754,0.0112509,0.00990787,0.00928517,0.00917063,0.00937161,0.00898086,0.008253,0.00916034,0.0318717,0.0589592,0.0924606,0.207455,0.193869,0.22295,0.241905,0.162808,0.112152,0.0742584,0.0335773,0.0182027,0.0193932,0.0167225,0.0154202,0.0147605,0.013971,0.0152007,0.0136971,0.0131078,0.0161673,0.0132929,0.00930691,0.0159643,0.0156976,0.0225142,0.0194704,0.0210128,0.0195989,0.0174115,0.019781,0.0213102,0.0223868,0.0303455,0.0214051,0.0202311,0.0216456,0.0188092,0.0177394,0.0199342,0.0226715,0.0234791,0.0239046,0.0255373,0.0273371,0.0265959,0.0237527,0.0224973,0.0230013,0.0232594,0.0217559,0.0184697,0.0170452,0.00164878,0.000352881,4.62752e-05,7.09579e-09,7.09579e-09,nan,nan,nan,nan,nan,nan,nan,nan,nan,nan,nan,nan,nan,nan,nan,nan,nan,nan,nan,nan,nan,nan,nan,nan,nan,nan,nan,nan,nan,nan,nan,nan,nan,nan,nan,nan,nan,nan,nan,nan,nan,nan,nan,nan,nan,nan,nan,nan,nan,nan,nan,nan,nan,nan,nan,nan,nan,nan,nan,nan,nan,nan,nan,nan,nan,nan,nan,nan,nan,nan,nan,nan,nan,nan,nan,nan,nan,nan,nan,nan,nan,nan,nan,nan,nan,nan,nan,nan,nan,nan,nan,nan,nan,nan,nan,nan,nan,nan,nan,nan,nan,nan,nan,nan,nan,nan,nan,nan,nan,nan,nan,nan,nan,nan,nan,nan,nan,nan,nan,nan,nan,nan,nan,nan
0.0205662,0.0264409,0.0264147,0.0289776,0.0312047,0.0285829,0.0405618,0.0494557,0.0821324,0.0709456,0.0640934,0.0591218,0.0677357,0.0886523,0.0674567,0.0518634,0.0700458,0.0644349,0.0582004,0.0358128,0.0357003,0.0367539,0.0437064,0.0349524,0.0557977,0.127889,0.0952989,0.0906779,0.0585539,0.0518941,0.0472416,0.0638261,0.0642128,0.0649635,0.0677849,0.0449425,0.0484998,0.0432788,0.0576947,0.0609825,0.0494514,0.0556447,0.0771646,0.0731571,0.0631228,0.0503827,0.0524889,0.0472208,0.0400059,0.0411147,0.0334585,0.029511,0.0369434,0.0387311,0.0491379,0.0407404,0.0504871,0.0461554,0.044988,0.0360402,0.0383239,0.0345073,0.0428573,0.0289061,0.0354403,0.0360987,0.0317441,0.0448367,0.0294719,0.0346557,0.0321021,0.0255723,0.0304203,0.021819,0.0227912,0.0279694,0.025357,0.0252611,0.0198382,0.0185929,0.0171207,0.0138543,0.0134141,0.012253,0.0104602,0.0074413,0.00782553,0.00795949,0.0142263,0.0165709,0.0199042,0.0229275,0.0192655,0.0198757,0.0204338,0.0197563,0.0202092,0.0186124,0.0248609,0.0250933,0.0303373,0.02274,0.0242379,0.0288539,0.0332953,0.0379781,0.033159,0.0377122,0.0317198,0.0219782,0.0215437,0.0232628,0.036037,0.0357224,0.035816,0.0159593,0.0151269,0.0151354,0.0303596,0.0626514,0.0994666,0.237083,0.190607,0.238801,0.244233,0.148882,0.10918,0.0835409,0.0380669,0.021274,0.00992142,0.0103764,0.0100777,0.00963515,0.0121864,0.0149088,0.0145934,0.0140087,0.0125664,0.0105243,0.00749148,0.00869669,0.0144472,0.0129726,0.0125461,0.0138347,0.0152221,0.0165588,0.0219149,0.0206082,0.0221582,0.0235478,0.0328089,0.018067,0.0180106,0.0169296,0.0164186,0.0192194,0.0192914,0.0206387,0.0207835,0.0210055,0.0202231,0.0179251,0.0146095,0.0136372,0.0126953,0.0117333,0.0125722,0.000314212,0.000113483,2.05636e-05,7.09579e-09,3.5479e-09,3.5479e-09,3.5479e-09,7.09579e-09,nan,nan,nan,nan,nan,nan,nan,nan,nan,nan,nan,nan,nan,nan,nan,nan,nan,nan,nan,nan,nan,nan,nan,nan,nan,nan,nan,nan,nan,nan,nan,nan,nan,nan,nan,nan,nan,nan,nan,nan,nan,nan,nan,nan,nan,nan,nan,nan,nan,nan,nan,nan,nan,nan,nan,nan,nan,nan,nan,nan,nan,nan,nan,nan,nan,nan,nan,nan,nan,nan,nan,nan,nan,nan,nan,nan,nan,nan,nan,nan,nan,nan,nan,nan,nan,nan,nan,nan,nan,nan,nan,nan,nan,nan,nan,nan,nan,nan,nan,nan,nan,nan,nan,nan,nan,nan,nan,nan,nan,nan,nan,nan,nan,nan,nan,nan,nan,nan,nan,nan,nan,nan,nan
0.02346,0.0258562,0.027967,0.0321832,0.045122,0.0447361,0.047653,0.0530259,0.0606396,0.0750341,0.0679861,0.0907357,0.0742195,0.0699345,0.0566605,0.0524161,0.0641618,0.0711105,0.0666869,0.0353753,0.0318114,0.0332317,0.0266788,0.0354957,0.0523097,0.0947564,0.0834058,0.0706981,0.053513,0.0382992,0.0592115,0.0590191,0.0552108,0.0535715,0.0237836,0.0255603,0.0533482,0.0671358,0.0638119,0.0460867,0.0630412,0.063562,0.0565433,0.043442,0.0725647,0.0599977,0.0569327,0.0616571,0.0454773,0.0391128,0.0399033,0.0370401,0.0347665,0.0483632,0.0394468,0.0412351,0.0444925,0.0458332,0.0394412,0.0421533,0.0427846,0.0296473,0.0273764,0.0225027,0.0207712,0.0243103,0.0280956,0.0296478,0.0257409,0.0392415,0.0328113,0.0317469,0.0234829,0.0294088,0.0223586,0.0246036,0.0242826,0.0230798,0.0172304,0.016451,0.015389,0.00610716,0.00538318,0.00499689,0.00441624,0.00472347,0.00450405,0.0057895,0.00668385,0.00748352,0.00823753,0.0179094,0.0185075,0.0176617,0.0177929,0.0157123,0.0172844,0.0181858,0.0194013,0.02296,0.0194144,0.022421,0.0219414,0.0294662,0.0261965,0.0342154,0.0382477,0.0325817,0.0311843,0.0390869,0.03106,0.0316935,0.0280377,0.0384925,0.0375778,0.0371066,0.0253094,0.0343507,0.0414634,0.0610346,0.0876042,0.237115,0.249898,0.191829,0.21504,0.169141,0.12024,0.0821698,0.0488665,0.0231435,0.0215346,0.0209217,0.0202438,0.0193431,0.0200176,0.0148648,0.013547,0.0127957,0.0113804,0.0122153,0.0134448,0.0139164,0.0147926,0.01629,0.0161492,0.0155936,0.0163907,0.017921,0.0187354,0.0231858,0.0223733,0.022124,0.0197222,0.0158774,0.0146702,0.0128863,0.0115247,0.0113707,0.0105438,0.0114036,0.0119987,0.0119365,0.0125732,0.0109947,0.00333676,0.00836796,8.84632e-05,4.94364e-05,1.15732e-05,7.09579e-09,1.06437e-08,1.06437e-08,3.5479e-09,1.06437e-08,1.06437e-08,7.09579e-09,3.5479e-09,nan,nan,nan,nan,nan,nan,nan,nan,nan,nan,nan,nan,nan,nan,nan,nan,nan,nan,nan,nan,nan,nan,nan,nan,nan,nan,nan,nan,nan,nan,nan,nan,nan,nan,nan,nan,nan,nan,nan,nan,nan,nan,nan,nan,nan,nan,nan,nan,nan,nan,nan,nan,nan,nan,nan,nan,nan,nan,nan,nan,nan,nan,nan,nan,nan,nan,nan,nan,nan,nan,nan,nan,nan,nan,nan,nan,nan,nan,nan,nan,nan,nan,nan,nan,nan,nan,nan,nan,nan,nan,nan,nan,nan,nan,nan,nan,nan,nan,nan,nan,nan,nan,nan,nan,nan,nan,nan,nan,nan,nan,nan,nan,nan,nan,nan,nan,nan,nan,nan,nan,nan,nan,nan
0.0245919,0.0299385,0.0254074,0.0276955,0.0376066,0.0370227,0.0408521,0.0531669,0.0517723,0.0845388,0.0726708,0.0624647,0.0872716,0.0531921,0.0447326,0.0503,0.0781969,0.0684437,0.060863,0.0381038,0.0347119,0.0334405,0.0265116,0.0406861,0.0652538,0.0935774,0.0868441,0.0848219,0.0538699,0.0507536,0.059084,0.0535985,0.0513868,0.0451568,0.0233821,0.0220268,0.0447598,0.0662949,0.0566693,0.0640582,0.0662136,0.0660757,0.0441365,0.0266231,0.0663037,0.0712367,0.0639094,0.0582623,0.0623989,0.0403552,0.0175062,0.0210136,0.0251085,0.0339969,0.0406076,0.0424697,0.0422537,0.0437438,0.0445653,0.0492111,0.0473743,0.0454522,0.0298747,0.0285228,0.0269967,0.0232169,0.0275703,0.0204399,0.0362674,0.036958,0.0379331,0.0243098,0.0228731,0.0217983,0.0119288,0.00992158,0.00930689,0.00845482,0.00855133,0.00700892,0.00629293,0.00551959,0.00459598,0.00419755,0.00385621,0.0102221,0.0104735,0.0110384,0.00992047,0.0109082,0.00683241,0.00706574,0.00705766,0.00703694,0.0069687,0.00631417,0.014953,0.0155839,0.0139617,0.0168268,0.0173375,0.0193664,0.0272379,0.0241111,0.0253809,0.0252662,0.019866,0.0383789,0.0388661,0.0270435,0.038783,0.038867,0.0387937,0.0385953,0.0380909,0.0319124,0.0276624,0.0277448,0.0386721,0.0541319,0.0882459,0.230582,0.188858,0.186005,0.192945,0.166951,0.122881,0.0751183,0.0442199,0.0294478,0.0200594,0.0307349,0.0186488,0.0304059,0.0207434,0.023986,0.0153992,0.0110944,0.0126792,0.0129485,0.0146246,0.0162253,0.0169581,0.0174351,0.0185532,0.0191953,0.0191082,0.0195548,0.0182567,0.0174421,0.0119505,0.0120195,0.0114762,0.00977547,0.00851511,0.00748301,0.00552183,0.00607772,0.00438906,0.00471506,0.00429029,0.00598195,1.36683e-16,-2.67353e-16,3.5479e-09,3.5479e-09,3.5479e-09,7.09579e-09,7.09579e-09,1.06437e-08,1.41916e-08,1.41916e-08,1.41916e-08,1.06437e-08,1.41916e-08,7.09579e-09,nan,nan,nan,nan,nan,nan,nan,nan,nan,nan,nan,nan,nan,nan,nan,nan,nan,nan,nan,nan,nan,nan,nan,nan,nan,nan,nan,nan,nan,nan,nan,nan,nan,nan,nan,nan,nan,nan,nan,nan,nan,nan,nan,nan,nan,nan,nan,nan,nan,nan,nan,nan,nan,nan,nan,nan,nan,nan,nan,nan,nan,nan,nan,nan,nan,nan,nan,nan,nan,nan,nan,nan,nan,nan,nan,nan,nan,nan,nan,nan,nan,nan,nan,nan,nan,nan,nan,nan,nan,nan,nan,nan,nan,nan,nan,nan,nan,nan,nan,nan,nan,nan,nan,nan,nan,nan,nan,nan,nan,nan,nan,nan,nan,nan,nan,nan,nan,nan,nan,nan,nan,nan,nan,nan
0.0241516,0.0338911,0.0336179,0.03279,0.0390972,0.0467017,0.0451049,0.0478492,0.0544207,0.0764413,0.0969465,0.0706881,0.0531428,0.0677516,0.0539202,0.0524213,0.0788919,0.0611828,0.0525581,0.0527685,0.0396384,0.0333242,0.027854,0.0424306,0.0496376,0.0778515,0.0983783,0.0728933,0.0797476,0.0477813,0.0448362,0.0508479,0.0394967,0.0446588,0.0230607,0.0214341,0.0434055,0.0724362,0.0791237,0.102734,0.067122,0.067145,0.0435248,0.0228724,0.0645921,0.0624191,0.0643516,0.0633137,0.0578737,0.0386917,0.0327015,0.0335435,0.0367611,0.0356088,0.0372674,0.0371713,0.0412187,0.0434841,0.0299944,0.0486779,0.046906,0.0340487,0.0319517,0.0256481,0.026296,0.0288883,0.03104,0.0211346,0.0421833,0.0366281,0.0339912,0.0229681,0.0203285,0.0149413,0.010159,0.0197118,0.0184171,0.0177945,0.013538,0.0118641,0.0177295,0.016289,0.0157833,0.00398913,0.00433606,0.0106753,0.009739,0.00959369,0.0105533,0.0158026,0.0169371,0.0132981,0.0134681,0.0147998,0.00680645,0.00611993,0.00536816,0.0080737,0.00848254,0.00962839,0.00691396,0.00747307,0.0117027,0.0116586,0.0131224,0.0138996,0.0118446,0.0359508,0.0365628,0.0365078,0.0248965,0.0371523,0.0373322,0.0253547,0.0214949,0.0274821,0.0244788,0.0294809,0.0331405,0.0458521,0.0885072,0.139471,0.178616,0.185147,0.20931,0.191188,0.136307,0.0909643,0.053525,0.0258322,0.0339887,0.0217187,0.0347174,0.0275111,0.0358834,0.0239126,0.0206746,0.0126779,0.008617,0.008521,0.00877532,0.0107598,0.0117348,0.0124086,0.012852,0.0132096,0.013269,0.0132687,0.0112412,0.0109703,0.00915019,0.00738441,0.00615846,0.00464025,0.00392379,0.00132049,0.00123435,2.39156e-16,2.55384e-16,0,2.38364e-16,1.24736e-16,7.09579e-09,7.09579e-09,7.09579e-09,1.06437e-08,1.06437e-08,1.06437e-08,7.09579e-09,1.41916e-08,1.41916e-08,2.12874e-08,1.41916e-08,1.41916e-08,7.09579e-09,7.09579e-09,7.09579e-09,nan,nan,nan,nan,nan,nan,nan,nan,nan,nan,nan,nan,nan,nan,nan,nan,nan,nan,nan,nan,nan,nan,nan,nan,nan,nan,nan,nan,nan,nan,nan,nan,nan,nan,nan,nan,nan,nan,nan,nan,nan,nan,nan,nan,nan,nan,nan,nan,nan,nan,nan,nan,nan,nan,nan,nan,nan,nan,nan,nan,nan,nan,nan,nan,nan,nan,nan,nan,nan,nan,nan,nan,nan,nan,nan,nan,nan,nan,nan,nan,nan,nan,nan,nan,nan,nan,nan,nan,nan,nan,nan,nan,nan,nan,nan,nan,nan,nan,nan,nan,nan,nan,nan,nan,nan,nan,nan,nan,nan,nan,nan,nan,nan,nan,nan,nan,nan,nan,nan,nan,nan,nan,nan
0.0292455,0.030533,0.0311295,0.0533076,0.038146,0.0390161,0.067205,0.0882614,0.102048,0.119052,0.120902,0.105767,0.105192,0.0916039,0.0620176,0.0865091,0.0798362,0.0528415,0.0465159,0.0491247,0.0487418,0.0182129,0.0342367,0.0355169,0.0524255,0.0887197,0.0846357,0.0703947,0.0690777,0.0615605,0.0393225,0.0260629,0.0328911,0.014664,0.0176973,0.0185263,0.0189124,0.0726006,0.0992102,0.0771415,0.092002,0.0586681,0.0418081,0.0392695,0.0374629,0.0223978,0.0380651,0.0490433,0.0474527,0.0397844,0.0334748,0.0324977,0.0318417,0.0332597,0.0295313,0.028818,0.0384953,0.0389935,0.0298331,0.0244256,0.0355306,0.0332267,0.0301002,0.0266677,0.0294407,0.0282791,0.0299921,0.0223516,0.0366754,0.0417726,0.0289648,0.0220844,0.0201984,0.0199791,0.019049,0.0171334,0.0169764,0.0144826,0.0148363,0.0182263,0.0150861,0.017426,0.0178542,0.00962253,0.00425539,0.0117247,0.0140198,0.0135567,0.0114971,0.0140402,0.0104805,0.0122498,0.0119358,0.0187401,0.00574268,0.00624351,0.00569452,0.00579905,0.00543108,0.00512733,0.00586525,0.00585148,0.00447135,0.00475125,0.00533615,0.00612722,0.00740535,0.00790969,0.00862556,0.00916533,0.00894254,0.0100725,0.022259,0.022152,0.0188491,0.0193701,0.0354989,0.0276733,0.0285781,0.0570132,0.084711,0.114214,0.151982,0.207199,0.195762,0.201196,0.140504,0.0791648,0.0409245,0.0201797,0.0206788,0.0220954,0.0215697,0.0328425,0.0336164,0.0340822,0.0230067,0.0145411,0.00807037,0.00298793,8.90273e-05,9.78971e-05,0.000105156,0.000105156,0.000105156,1.29806e-16,2.39778e-16,2.45737e-16,2.34817e-16,0,2.25613e-16,2.15314e-16,2.14608e-16,0,0,2.03772e-16,2.00936e-16,2.03822e-16,7.09579e-09,1.41916e-08,2.12874e-08,2.12874e-08,2.12874e-08,1.77395e-08,2.12874e-08,2.12874e-08,1.06437e-08,1.06437e-08,1.06437e-08,1.06437e-08,1.77395e-08,1.41916e-08,2.12874e-08,1.41916e-08,7.09579e-09,3.5479e-09,nan,nan,nan,nan,nan,nan,nan,nan,nan,nan,nan,nan,nan,nan,nan,nan,nan,nan,nan,nan,nan,nan,nan,nan,nan,nan,nan,nan,nan,nan,nan,nan,nan,nan,nan,nan,nan,nan,nan,nan,nan,nan,nan,nan,nan,nan,nan,nan,nan,nan,nan,nan,nan,nan,nan,nan,nan,nan,nan,nan,nan,nan,nan,nan,nan,nan,nan,nan,nan,nan,nan,nan,nan,nan,nan,nan,nan,nan,nan,nan,nan,nan,nan,nan,nan,nan,nan,nan,nan,nan,nan,nan,nan,nan,nan,nan,nan,nan,nan,nan,nan,nan,nan,nan,nan,nan,nan,nan,nan,nan,nan,nan,nan,nan,nan,nan,nan,nan,nan,nan,nan,nan,nan,nan
0.0226136,0.0573917,0.0578821,0.0526531,0.0519084,0.0515925,0.0655064,0.0864113,0.111858,0.131376,0.141277,0.123178,0.131712,0.11228,0.0807585,0.0945594,0.0869309,0.0737356,0.0430225,0.0501889,0.046375,0.0393196,0.0432478,0.0405923,0.0710304,0.0756228,0.0891634,0.0927077,0.071202,0.0555072,0.0368842,0.0356747,0.0328846,0.0329506,0.0174984,0.0156069,0.0169164,0.0726301,0.073966,0.0905844,0.0917577,0.06491,0.0717522,0.0606022,0.0403729,0.0226969,0.0400781,0.0591566,0.0582828,0.062311,0.0236747,0.03142,0.0244129,0.0295448,0.0312902,0.0392576,0.0291323,0.0284344,0.0357795,0.0241413,0.0292519,0.0320306,0.0300724,0.0246641,0.0253084,0.0252324,0.0239177,0.022933,0.0345146,0.0362342,0.0258965,0.0229318,0.0223035,0.0181906,0.0176299,0.0171085,0.0169223,0.0154714,0.0161004,0.0188506,0.022525,0.0197828,0.0213849,0.0241397,0.011463,0.00571449,0.0157324,0.0147774,0.00997149,0.0097589,0.00921849,0.00624393,0.0167898,0.0178075,0.0101233,0.00860729,0.00840828,0.00861956,0.00835771,0.0057076,0.00561957,0.00572876,0.00502009,0.0046907,0.00250604,0.00428815,0.00470643,0.00507431,0.00519144,0.00644189,0.00627231,0.00703931,0.00735245,0.015469,0.0163154,0.0170483,0.0332434,0.0335535,0.0343541,0.0574286,0.076882,0.108774,0.156948,0.225333,0.229078,0.154298,0.137389,0.0974476,0.0605909,0.0130459,0.00954551,0.00877925,0.00775721,0.00780332,0.00799047,0.00930037,0.00664825,0.00468581,0.00465014,0.00157698,6.32875e-16,5.16799e-16,2.53829e-16,3.73538e-16,2.41419e-16,0,2.24082e-16,2.20592e-16,2.07828e-16,2.05719e-16,2.04344e-16,1.95009e-16,1.95239e-16,7.09579e-09,1.06437e-08,1.41916e-08,1.41916e-08,1.41916e-08,1.41916e-08,2.48353e-08,3.19311e-08,3.90269e-08,2.83832e-08,2.12874e-08,2.12874e-08,1.06437e-08,1.41916e-08,2.12874e-08,1.06437e-08,2.12874e-08,1.77395e-08,1.41916e-08,1.06437e-08,1.41916e-08,7.09579e-09,7.09579e-09,nan,nan,nan,nan,nan,nan,nan,nan,nan,nan,nan,nan,nan,nan,nan,nan,nan,nan,nan,nan,nan,nan,nan,nan,nan,nan,nan,nan,nan,nan,nan,nan,nan,nan,nan,nan,nan,nan,nan,nan,nan,nan,nan,nan,nan,nan,nan,nan,nan,nan,nan,nan,nan,nan,nan,nan,nan,nan,nan,nan,nan,nan,nan,nan,nan,nan,nan,nan,nan,nan,nan,nan,nan,nan,nan,nan,nan,nan,nan,nan,nan,nan,nan,nan,nan,nan,nan,nan,nan,nan,nan,nan,nan,nan,nan,nan,nan,nan,nan,nan,nan,nan,nan,nan,nan,nan,nan,nan,nan,nan,nan,nan,nan,nan,nan,nan,nan,nan,nan,nan,nan,nan,nan,nan
0.0861207,0.0590548,0.0552154,0.0507637,0.0600416,0.0960955,0.131691,0.107529,0.117992,0.154957,0.181787,0.141045,0.126932,0.148878,0.109232,0.165185,0.159904,0.154766,0.0556762,0.044082,0.0397776,0.0421648,0.0484311,0.0506444,0.0694433,0.0842618,0.082529,0.076945,0.0825174,0.0450737,0.036216,0.0395362,0.0394801,0.0396021,0.0209233,0.0165095,0.0221761,0.0259219,0.0753767,0.0754596,0.0817624,0.0882023,0.075688,0.0787699,0.0324024,0.030234,0.0306994,0.0642598,0.0600657,0.0623737,0.0273186,0.0214958,0.0301577,0.0309153,0.0380912,0.0304422,0.0291492,0.0302188,0.0330406,0.0345132,0.0263553,0.0265965,0.0274697,0.0236872,0.0304084,0.0294683,0.0314837,0.0260625,0.0336738,0.0335035,0.0243001,0.0231717,0.0174347,0.0175736,0.0201599,0.0285936,0.0166236,0.0111904,0.0134927,0.0161751,0.0227065,0.0206521,0.0260327,0.0216505,0.0239785,0.0196057,0.00621744,0.0113505,0.0115463,0.0174418,0.0162557,0.0102899,0.0115912,0.00984419,0.013547,0.0180496,0.0147814,0.0128678,0.0136933,0.0124353,0.00609667,0.00515944,0.00530902,0.00460389,0.00413493,0.00353677,0.00275482,0.00209594,0.00228316,0.00262488,0.00351177,0.00304688,0.00255176,0.00344082,0.00478527,0.00524571,0.0294842,0.02986,0.0304156,0.0301621,0.0737529,0.139499,0.185881,0.216836,0.222591,0.154762,0.118196,0.0929424,0.0492893,0.00988069,0.00572894,0.00589875,0.0061368,0.00579071,0.00517751,0.00488918,0.00293258,0.0032042,0.00117699,1.00299e-05,7.09579e-09,1.06437e-08,1.06437e-08,1.06437e-08,7.09579e-09,7.09579e-09,7.09579e-09,3.5479e-09,3.5479e-09,3.5479e-09,3.5479e-09,1.06437e-08,1.06437e-08,1.06437e-08,7.09579e-09,1.06437e-08,1.41916e-08,7.09579e-09,1.41916e-08,1.77395e-08,3.90269e-08,3.5479e-08,2.48353e-08,2.83832e-08,1.77395e-08,1.41916e-08,1.77395e-08,1.77395e-08,2.12874e-08,1.77395e-08,1.06437e-08,1.06437e-08,1.41916e-08,7.09579e-09,7.09579e-09,7.09579e-09,nan,nan,nan,nan,nan,nan,nan,nan,nan,nan,nan,nan,nan,nan,nan,nan,nan,nan,nan,nan,nan,nan,nan,nan,nan,nan,nan,nan,nan,nan,nan,nan,nan,nan,nan,nan,nan,nan,nan,nan,nan,nan,nan,nan,nan,nan,nan,nan,nan,nan,nan,nan,nan,nan,nan,nan,nan,nan,nan,nan,nan,nan,nan,nan,nan,nan,nan,nan,nan,nan,nan,nan,nan,nan,nan,nan,nan,nan,nan,nan,nan,nan,nan,nan,nan,nan,nan,nan,nan,nan,nan,nan,nan,nan,nan,nan,nan,nan,nan,nan,nan,nan,nan,nan,nan,nan,nan,nan,nan,nan,nan,nan,nan,nan,nan,nan,nan,nan,nan,nan,nan,nan,nan,nan
0.0730588,0.0711682,0.051234,0.0529852,0.0785418,0.110791,0.123428,0.121083,0.246691,0.302277,0.286783,0.311984,0.222931,0.22736,0.143305,0.159487,0.161935,0.157328,0.0460925,0.0441345,0.0414266,0.0363373,0.0391749,0.0555965,0.0646041,0.0830376,0.0810639,0.0727169,0.0603192,0.0425378,0.0298162,0.030622,0.0402904,0.0336917,0.0243233,0.011932,0.0201975,0.018714,0.0748129,0.0753525,0.0752707,0.0766469,0.077638,0.0585468,0.0422847,0.029377,0.0274033,0.0551214,0.0610012,0.0620593,0.0266778,0.0273303,0.03992,0.03222,0.0220933,0.0211886,0.0184877,0.0249879,0.0320897,0.0301027,0.0241134,0.0201224,0.0258301,0.0312809,0.026231,0.0321871,0.0305707,0.0360842,0.02928,0.0331831,0.013265,0.020491,0.0191916,0.0186886,0.0280842,0.0227615,0.0155617,0.0127837,0.0132403,0.0144223,0.02195,0.0227772,0.0210055,0.0247659,0.0203343,0.02799,0.0200732,0.00690789,0.00546679,0.0198541,0.0179348,0.0109666,0.00988253,0.0117106,0.015825,0.0119291,0.01348,0.0143161,0.0162152,0.0231605,0.017546,0.0177822,0.0093203,0.00533994,0.00518929,0.00443566,0.00378639,0.00286947,0.00254817,0.000877685,0.000788082,0.00133952,0.00219945,0.00277379,0.00253627,0.00371126,0.00522141,0.00479015,0.00739904,0.0205511,0.0767181,0.132093,0.162464,0.192358,0.196173,0.150035,0.112045,0.0844817,0.0459105,0.00785433,0.00431652,0.00394101,0.00341756,0.00398427,0.00278492,0.0024102,0.00275889,0.00281265,0.00101402,1.00264e-05,7.09579e-09,1.77395e-08,2.12874e-08,1.41916e-08,1.06437e-08,1.06437e-08,1.06437e-08,7.09579e-09,1.06437e-08,1.06437e-08,7.09579e-09,1.06437e-08,1.06437e-08,1.06437e-08,1.06437e-08,1.06437e-08,1.41916e-08,7.09579e-09,1.06437e-08,2.83832e-08,2.48353e-08,1.77395e-08,2.12874e-08,1.06437e-08,1.77395e-08,1.41916e-08,1.77395e-08,1.41916e-08,1.06437e-08,1.41916e-08,1.06437e-08,1.41916e-08,1.06437e-08,1.06437e-08,7.09579e-09,7.09579e-09,nan,nan,nan,nan,nan,nan,nan,nan,nan,nan,nan,nan,nan,nan,nan,nan,nan,nan,nan,nan,nan,nan,nan,nan,nan,nan,nan,nan,nan,nan,nan,nan,nan,nan,nan,nan,nan,nan,nan,nan,nan,nan,nan,nan,nan,nan,nan,nan,nan,nan,nan,nan,nan,nan,nan,nan,nan,nan,nan,nan,nan,nan,nan,nan,nan,nan,nan,nan,nan,nan,nan,nan,nan,nan,nan,nan,nan,nan,nan,nan,nan,nan,nan,nan,nan,nan,nan,nan,nan,nan,nan,nan,nan,nan,nan,nan,nan,nan,nan,nan,nan,nan,nan,nan,nan,nan,nan,nan,nan,nan,nan,nan,nan,nan,nan,nan,nan,nan,nan,nan,nan,nan,nan,nan
0.0617768,0.0577217,0.163506,0.153647,0.184615,0.115836,0.126915,0.147172,0.219085,0.271459,0.303204,0.232953,0.22617,0.223359,0.18744,0.158228,0.141817,0.13625,0.0627238,0.0439163,0.0333574,0.0310274,0.0399522,0.0506831,0.0725336,0.1074,0.0729754,0.0805968,0.0550639,0.0570636,0.0571854,0.0359994,0.0306692,0.0322703,0.031753,0.0260769,0.0164379,0.019095,0.0761194,0.0766294,0.0762834,0.0253907,0.0307737,0.041063,0.0270433,0.0260334,0.0231641,0.0257007,0.0199385,0.0304951,0.0323549,0.033778,0.0366645,0.0401494,0.0206348,0.0174606,0.0232717,0.0267345,0.0321381,0.0303617,0.0256747,0.0230218,0.0216605,0.0228075,0.0244082,0.0296851,0.0254121,0.0268585,0.035436,0.0205986,0.0132892,0.0164739,0.017759,0.0281523,0.0218705,0.0196578,0.015495,0.0114109,0.0188568,0.0197211,0.0145873,0.0247169,0.0182917,0.0312437,0.0292508,0.0212872,0.0292609,0.023121,0.0200379,0.0186821,0.014103,0.0137381,0.0119467,0.00997138,0.010533,0.0134646,0.00622695,0.0144823,0.0211577,0.0168099,0.0163036,0.0131401,0.0174984,0.0120813,0.00630979,0.00615733,0.00556245,0.00537374,0.0045212,0.00366154,0.00276203,0.00134139,0.000952449,0.00104428,0.00240663,0.00198166,0.00343462,0.0039723,0.00893154,0.0337857,0.0845895,0.135236,0.166214,0.204649,0.197697,0.17089,0.120074,0.0567778,0.0174222,0.00653713,0.00331213,0.00212083,5.60532e-05,8.59229e-05,0.00169028,0.000736579,9.3558e-05,4.80421e-05,8.48302e-06,2.05778e-07,1.41916e-08,2.12874e-08,2.12874e-08,1.41916e-08,7.09579e-09,1.06437e-08,1.06437e-08,1.06437e-08,1.06437e-08,7.09579e-09,1.06437e-08,1.06437e-08,1.06437e-08,1.06437e-08,1.06437e-08,1.06437e-08,7.09579e-09,7.09579e-09,1.06437e-08,1.06437e-08,1.06437e-08,7.09579e-09,7.09579e-09,7.09579e-09,1.06437e-08,1.06437e-08,1.06437e-08,3.5479e-09,3.5479e-09,7.09579e-09,8.16016e-08,8.16016e-08,8.16016e-08,1.06437e-08,1.06437e-08,1.41916e-08,3.5479e-09,nan,nan,nan,nan,nan,nan,nan,nan,nan,nan,nan,nan,nan,nan,nan,nan,nan,nan,nan,nan,nan,nan,nan,nan,nan,nan,nan,nan,nan,nan,nan,nan,nan,nan,nan,nan,nan,nan,nan,nan,nan,nan,nan,nan,nan,nan,nan,nan,nan,nan,nan,nan,nan,nan,nan,nan,nan,nan,nan,nan,nan,nan,nan,nan,nan,nan,nan,nan,nan,nan,nan,nan,nan,nan,nan,nan,nan,nan,nan,nan,nan,nan,nan,nan,nan,nan,nan,nan,nan,nan,nan,nan,nan,nan,nan,nan,nan,nan,nan,nan,nan,nan,nan,nan,nan,nan,nan,nan,nan,nan,nan,nan,nan,nan,nan,nan,nan,nan,nan,nan,nan,nan,nan
0.0645559,0.069204,0.142557,0.164848,0.159272,0.0777197,0.110414,0.122314,0.202621,0.215326,0.248903,0.239392,0.207836,0.184231,0.178395,0.0758989,0.0565465,0.0566689,0.0561544,0.0577593,0.0607656,0.0587564,0.0558155,0.0561811,0.0630545,0.0916772,0.107921,0.0778455,0.0634108,0.0655949,0.0428531,0.0310006,0.045036,0.0974339,0.101344,0.112306,0.0343326,0.0316682,0.0362157,0.0366535,0.0536686,0.0490087,0.0346045,0.0356895,0.0254303,0.0252066,0.0228784,0.0282679,0.0276874,0.0259717,0.0367077,0.0578913,0.041633,0.0287753,0.0221254,0.0194155,0.0229253,0.0341729,0.0329716,0.0275716,0.0262817,0.0244487,0.020003,0.0228186,0.018248,0.0186947,0.0225528,0.0278263,0.0277661,0.0106567,0.0114225,0.0164032,0.0145448,0.0185884,0.0198213,0.0137048,0.0161764,0.0092634,0.0159615,0.0188084,0.0239472,0.0187183,0.0200318,0.0297701,0.0220728,0.0297601,0.0247861,0.0246495,0.0221385,0.0272155,0.0200032,0.00749613,0.0130087,0.0135949,0.0146949,0.0139906,0.00572254,0.0095472,0.013103,0.0101001,0.00893033,0.0154391,0.0222032,0.0289696,0.029638,0.00944586,0.00966637,0.00675913,0.00625589,0.00612024,0.00533846,0.00432068,0.00277229,0.0017449,0.0015177,0.00162027,0.0012592,0.00202491,0.00716,0.0382162,0.091603,0.152741,0.207866,0.211532,0.203733,0.134612,0.104122,0.0623133,0.0179284,0.00564464,0.00386029,3.5479e-09,3.5479e-09,2.30613e-07,2.30613e-07,2.30613e-07,1.59655e-07,1.77395e-08,1.41916e-08,1.41916e-08,2.48353e-08,2.48353e-08,1.06437e-08,1.77395e-08,1.41916e-08,1.06437e-08,7.09579e-09,7.09579e-09,7.09579e-09,1.06437e-08,1.06437e-08,1.06437e-08,1.91518e-16,0,1.98932e-16,1.93844e-16,0,0,0,0,0,1.25372e-16,1.25354e-16,0,1.06437e-08,1.06437e-08,0.00206527,2.8738e-06,2.98023e-06,1.5295e-05,3.08809e-05,0.00118542,3.08844e-05,2.90253e-05,1.09062e-05,7.09579e-09,7.09579e-09,nan,nan,nan,nan,nan,nan,nan,nan,nan,nan,nan,nan,nan,nan,nan,nan,nan,nan,nan,nan,nan,nan,nan,nan,nan,nan,nan,nan,nan,nan,nan,nan,nan,nan,nan,nan,nan,nan,nan,nan,nan,nan,nan,nan,nan,nan,nan,nan,nan,nan,nan,nan,nan,nan,nan,nan,nan,nan,nan,nan,nan,nan,nan,nan,nan,nan,nan,nan,nan,nan,nan,nan,nan,nan,nan,nan,nan,nan,nan,nan,nan,nan,nan,nan,nan,nan,nan,nan,nan,nan,nan,nan,nan,nan,nan,nan,nan,nan,nan,nan,nan,nan,nan,nan,nan,nan,nan,nan,nan,nan,nan,nan,nan,nan,nan,nan,nan,nan,nan,nan,nan,nan,nan
0.0684049,0.0708873,0.145448,0.132064,0.136336,0.0892424,0.102514,0.107645,0.100231,0.113936,0.118022,0.125831,0.117727,0.11658,0.0817258,0.0661633,0.0559497,0.0557335,0.0472825,0.0597708,0.0523765,0.0452167,0.0427526,0.0552393,0.0683097,0.0852085,0.084897,0.0840658,0.0696031,0.0461521,0.0440561,0.0425031,0.0350274,0.0927533,0.113394,0.101377,0.0364299,0.0329118,0.0336551,0.0536,0.054176,0.0425034,0.0489571,0.0330127,0.02615,0.0196879,0.0279422,0.029387,0.0256876,0.0245251,0.0520311,0.0568083,0.0402519,0.0343729,0.0288334,0.0222744,0.0288917,0.0336369,0.0412569,0.0283335,0.0278248,0.0250161,0.0120996,0.0189119,0.0183342,0.0154633,0.0251201,0.0468967,0.0466973,0.04669,0.0120776,0.0168011,0.0209842,0.0181916,0.0182821,0.0158586,0.012785,0.0118039,0.0121602,0.0160282,0.0200561,0.0204526,0.0156305,0.024386,0.0253477,0.0218806,0.0298312,0.0262775,0.027992,0.0224674,0.0263226,0.0250104,0.0238509,0.00657814,0.0156594,0.00808987,0.0097535,0.0105444,0.0149377,0.00835045,0.00633906,0.00916502,0.0163143,0.0276716,0.0284798,0.0263377,0.0304387,0.0187423,0.0132985,0.00721648,0.00666342,0.00607649,0.00527068,0.00431612,0.00371769,0.00313309,0.00083471,0.00143866,0.00819042,0.0377834,0.0769825,0.123863,0.197374,0.213211,0.225433,0.129444,0.0996605,0.0520424,0.0130755,0.0043699,0.00212278,3.5479e-09,3.5479e-09,0,1.06437e-08,1.41916e-08,1.06437e-08,7.09579e-09,1.41916e-08,1.41916e-08,1.41916e-08,1.77395e-08,1.06437e-08,7.09579e-09,7.09579e-09,7.09579e-09,7.09579e-09,-2.02083e-16,0.00185676,0.00188382,0.00179281,0.001897,0.00204567,0.0022162,0.00245538,2.19051e-16,0.00308175,0.00357976,-2.44429e-16,0.00492927,0.00516195,0.00567807,0.00626528,0.00644721,0.00504708,0.00549481,0.00144274,0.00120056,0.00111642,0.00263565,0.00335795,0.0044191,0.00144638,0.00203427,0.000214119,3.35241e-05,5.99594e-07,7.09579e-09,nan,nan,nan,nan,nan,nan,nan,nan,nan,nan,nan,nan,nan,nan,nan,nan,nan,nan,nan,nan,nan,nan,nan,nan,nan,nan,nan,nan,nan,nan,nan,nan,nan,nan,nan,nan,nan,nan,nan,nan,nan,nan,nan,nan,nan,nan,nan,nan,nan,nan,nan,nan,nan,nan,nan,nan,nan,nan,nan,nan,nan,nan,nan,nan,nan,nan,nan,nan,nan,nan,nan,nan,nan,nan,nan,nan,nan,nan,nan,nan,nan,nan,nan,nan,nan,nan,nan,nan,nan,nan,nan,nan,nan,nan,nan,nan,nan,nan,nan,nan,nan,nan,nan,nan,nan,nan,nan,nan,nan,nan,nan,nan,nan,nan,nan,nan,nan,nan,nan,nan,nan,nan
0.082427,0.0908043,0.0688348,0.0533908,0.0501789,0.0555322,0.0830808,0.0907283,0.0976851,0.0996958,0.110708,0.134195,0.111717,0.0857721,0.0628166,0.0525533,0.0471938,0.052741,0.0469482,0.0394705,0.0407455,0.0714766,0.0776996,0.0764946,0.0598517,0.065497,0.0637991,0.0999104,0.0689748,0.0516495,0.031631,0.0312067,0.0434652,0.115819,0.0933566,0.0998524,0.0386419,0.0363402,0.0353927,0.0510969,0.0518226,0.0479683,0.0431837,0.0518898,0.0272724,0.0224489,0.0259991,0.0294618,0.030031,0.0280156,0.0382482,0.0568404,0.0451262,0.0366201,0.0235358,0.026329,0.0272028,0.0402741,0.030046,0.0327296,0.0238956,0.026298,0.0195725,0.019923,0.023954,0.0235267,0.0251087,0.0350581,0.0634415,0.0476035,0.0267076,0.0177985,0.022698,0.0202423,0.0122994,0.0166413,0.0159559,0.0109771,0.00978598,0.00833637,0.0171242,0.0203638,0.0185045,0.0175126,0.0151419,0.0291422,0.0309559,0.0322867,0.0259824,0.0265858,0.0266386,0.025996,0.0333902,0.0265416,0.0135903,0.00909605,0.00804409,0.0150069,0.0117111,0.0156748,0.0153992,0.00937376,0.015395,0.0189275,0.0148625,0.0281358,0.0169301,0.0239436,0.0305205,0.0228491,0.0114306,0.00810027,0.00835297,0.00768788,0.00696783,0.00672538,0.00543461,0.00373207,0.00512421,0.0407248,0.0867062,0.126506,0.204671,0.230692,0.228298,0.167517,0.111511,0.0486895,0.0127687,0.000578993,1.20628e-06,3.90269e-08,7.09579e-08,7.09579e-08,7.09579e-08,1.06437e-08,1.06437e-08,2.27289e-16,2.18231e-16,3.5479e-09,7.09579e-09,7.09579e-09,7.09579e-09,0.00464724,0.00437503,0.00652119,0.00796146,0.00911511,0.00980722,0.0103027,0.0105268,0.0118578,0.0114076,0.0113913,0.0119913,0.0106226,0.0109219,0.0114721,0.0116379,0.012884,0.0141286,0.0148993,0.0155316,0.0143387,0.0125557,0.0114826,0.00962246,0.00906106,0.00833334,0.0071967,0.00698179,0.00761483,0.00804866,0.00839521,0.00944035,0.00351038,1.07005e-05,3.54789e-09,nan,nan,nan,nan,nan,nan,nan,nan,nan,nan,nan,nan,nan,nan,nan,nan,nan,nan,nan,nan,nan,nan,nan,nan,nan,nan,nan,nan,nan,nan,nan,nan,nan,nan,nan,nan,nan,nan,nan,nan,nan,nan,nan,nan,nan,nan,nan,nan,nan,nan,nan,nan,nan,nan,nan,nan,nan,nan,nan,nan,nan,nan,nan,nan,nan,nan,nan,nan,nan,nan,nan,nan,nan,nan,nan,nan,nan,nan,nan,nan,nan,nan,nan,nan,nan,nan,nan,nan,nan,nan,nan,nan,nan,nan,nan,nan,nan,nan,nan,nan,nan,nan,nan,nan,nan,nan,nan,nan,nan,nan,nan,nan,nan,nan,nan,nan,nan,nan,nan,nan,nan,nan
0.0952619,0.110016,0.0844276,0.065692,0.0621041,0.0571261,0.0791296,0.109538,0.099139,0.103102,0.0966937,0.09461,0.0861288,0.0780758,0.0579912,0.0501295,0.0433309,0.0434216,0.0382835,0.0389159,0.043239,0.0781173,0.08101,0.0816111,0.0510476,0.0507317,0.0566344,0.0735481,0.0950347,0.069243,0.0572837,0.021717,0.0423334,0.0475647,0.0410355,0.033826,0.0373161,0.0327218,0.0385091,0.038686,0.0412096,0.0373253,0.0483366,0.0289237,0.023297,0.0239099,0.025734,0.0319612,0.034343,0.0275868,0.0347583,0.0464288,0.0432423,0.0345924,0.0273535,0.0355397,0.0325019,0.0284153,0.0333074,0.0418047,0.0270481,0.0330425,0.0215948,0.0265456,0.0271695,0.0255116,0.0354292,0.0349417,0.0534256,0.0631341,0.0287181,0.0193149,0.0237722,0.0220579,0.0187311,0.0183596,0.0213021,0.0215916,0.0153123,0.0134526,0.0149582,0.0162806,0.0229794,0.0231659,0.0179533,0.016532,0.0297157,0.0224207,0.0197006,0.0255291,0.0231184,0.0340345,0.0279211,0.025808,0.0182808,0.0140747,0.00959355,0.0079448,0.0152375,0.0154952,0.0120413,0.0129989,0.0108164,0.0106713,0.0189781,0.0196979,0.0145395,0.0293325,0.0216725,0.0206375,0.0248048,0.0203099,0.0157689,0.0134474,0.00861289,0.00863882,0.00800977,0.00674957,0.00696643,0.0327695,0.085378,0.120416,0.206621,0.222386,0.180185,0.151141,0.11618,0.0533524,0.0118641,0.000672753,1.20628e-06,2.60593e-05,0.000447106,0.000769491,0.00119349,0.00144779,0.00231151,0.00298162,0.00300309,0.00324238,0.00364848,0.00679554,0.00835382,0.0102985,0.0118765,0.0127956,0.0134466,0.012997,0.0129834,0.0129457,0.0130091,0.0140877,0.0136428,0.0134516,0.0170316,0.0175683,0.0179992,0.0181912,0.0192244,0.0207547,0.0227288,0.0229414,0.0234771,0.0223951,0.0216834,0.0213474,0.0192128,0.0157302,0.0122417,0.0108522,0.00917758,0.00797807,0.00923463,0.0117128,0.007275,0.0206981,5.48611e-05,nan,nan,nan,nan,nan,nan,nan,nan,nan,nan,nan,nan,nan,nan,nan,nan,nan,nan,nan,nan,nan,nan,nan,nan,nan,nan,nan,nan,nan,nan,nan,nan,nan,nan,nan,nan,nan,nan,nan,nan,nan,nan,nan,nan,nan,nan,nan,nan,nan,nan,nan,nan,nan,nan,nan,nan,nan,nan,nan,nan,nan,nan,nan,nan,nan,nan,nan,nan,nan,nan,nan,nan,nan,nan,nan,nan,nan,nan,nan,nan,nan,nan,nan,nan,nan,nan,nan,nan,nan,nan,nan,nan,nan,nan,nan,nan,nan,nan,nan,nan,nan,nan,nan,nan,nan,nan,nan,nan,nan,nan,nan,nan,nan,nan,nan,nan,nan,nan,nan,nan,nan,nan,nan
0.203475,0.187725,0.0953787,0.084114,0.0798125,0.0699126,0.0675754,0.0677067,0.0894134,0.090132,0.0896916,0.0791358,0.0571203,0.0719882,0.0556305,0.0469882,0.0509646,0.0446726,0.0410473,0.0346869,0.0388474,0.0582445,0.0645132,0.0666857,0.111181,0.127904,0.121951,0.0788155,0.0693606,0.0591672,0.0567379,0.022138,0.0218101,0.0225384,0.0291825,0.0380525,0.0488032,0.0437231,0.0375749,0.0447043,0.0354318,0.0338883,0.0396797,0.0352167,0.0355774,0.0413237,0.0292844,0.0335311,0.0302809,0.0299426,0.0215152,0.0279557,0.0262715,0.0278129,0.0336373,0.033885,0.0303716,0.0248533,0.0422872,0.0291553,0.0350901,0.0272553,0.0391689,0.0277575,0.0350647,0.0307032,0.0386004,0.032209,0.0346796,0.0546893,0.0213317,0.0255471,0.0246584,0.028845,0.0279196,0.0237348,0.024617,0.0198006,0.0240465,0.0222969,0.0160115,0.0145526,0.0196392,0.0193135,0.0196039,0.0163045,0.0134753,0.0168213,0.0186084,0.0177011,0.0189325,0.0162137,0.027231,0.0253889,0.0173195,0.0158818,0.0170051,0.00971441,0.00692992,0.0049244,0.0112896,0.0128907,0.0132342,0.0114979,0.0106296,0.0134474,0.0185874,0.0166686,0.0182323,0.0236758,0.0185285,0.0168873,0.0213972,0.0273269,0.0279953,0.0271838,0.017723,0.0153293,0.0115055,0.0408644,0.0778131,0.132348,0.242693,0.215625,0.225386,0.169962,0.099875,0.0473401,0.0104909,0.000674442,0.000861295,0.00149367,0.00226588,0.00408189,0.00615312,0.00729919,0.00853328,0.010244,0.0113668,0.0121933,0.0130851,0.0156747,0.0171698,0.0183277,0.0190745,0.0198101,0.0218739,0.0234717,0.0247745,0.0256272,0.0265877,0.0270096,0.027523,0.0278471,0.0283838,0.0247599,0.0252277,0.0255989,0.0263923,0.0264355,0.0266879,0.0260928,0.0245761,0.0242496,0.024121,0.0236843,0.0227351,0.016641,0.0196351,0.0156042,0.0152066,0.0133182,0.0141411,0.0191475,0.025863,0.0405724,0.000313325,nan,nan,nan,nan,nan,nan,nan,nan,nan,nan,nan,nan,nan,nan,nan,nan,nan,nan,nan,nan,nan,nan,nan,nan,nan,nan,nan,nan,nan,nan,nan,nan,nan,nan,nan,nan,nan,nan,nan,nan,nan,nan,nan,nan,nan,nan,nan,nan,nan,nan,nan,nan,nan,nan,nan,nan,nan,nan,nan,nan,nan,nan,nan,nan,nan,nan,nan,nan,nan,nan,nan,nan,nan,nan,nan,nan,nan,nan,nan,nan,nan,nan,nan,nan,nan,nan,nan,nan,nan,nan,nan,nan,nan,nan,nan,nan,nan,nan,nan,nan,nan,nan,nan,nan,nan,nan,nan,nan,nan,nan,nan,nan,nan,nan,nan,nan,nan,nan,nan,nan,nan,nan,nan
0.240936,0.234078,0.225968,0.167329,0.12992,0.0925863,0.0826077,0.0749987,0.0675543,0.0763168,0.0743744,0.0603191,0.0659965,0.0522902,0.0527529,0.0521943,0.0443973,0.0544964,0.0373711,0.0360155,0.0397874,0.0490653,0.0464508,0.0627785,0.129412,0.125575,0.103942,0.0813055,0.062799,0.053721,0.0622373,0.0465355,0.0467396,0.0269816,0.0288062,0.0445773,0.0471731,0.0428884,0.0375448,0.0417596,0.0398292,0.0256047,0.0396646,0.0382819,0.0326766,0.0421543,0.0316537,0.0286628,0.0315616,0.0291299,0.0155286,0.0263485,0.0266725,0.0325422,0.0318021,0.0197959,0.0263019,0.0245523,0.0305993,0.029887,0.0280385,0.0403793,0.0403565,0.030934,0.0304359,0.0407715,0.0339845,0.0292892,0.0307849,0.0345116,0.0264187,0.0242058,0.0253307,0.0298793,0.0299075,0.0289416,0.0209555,0.0302291,0.0277615,0.0272766,0.0243365,0.016597,0.018284,0.0201611,0.022252,0.0127917,0.0115645,0.0144994,0.0134562,0.0125136,0.0134821,0.0149204,0.0250282,0.0231923,0.0191678,0.0198089,0.0183933,0.0174822,0.0149091,0.011033,0.0088716,0.0121808,0.0121845,0.0123006,0.0125275,0.00968082,0.00991124,0.014319,0.0164562,0.0111668,0.0135048,0.0189691,0.0217163,0.0274621,0.028526,0.02625,0.0285308,0.0159057,0.0174608,0.0449833,0.0831275,0.152564,0.225481,0.24236,0.19602,0.146138,0.0965343,0.048655,0.00789452,0.00217053,0.00155124,0.0031887,0.00507963,0.00697899,0.00787119,0.00927548,0.0142912,0.0158409,0.0164276,0.0178739,0.0195921,0.0221615,0.0240536,0.0240386,0.0236965,0.0237265,0.0237658,0.0294643,0.0281412,0.0272025,0.0267045,0.0273737,0.0279108,0.0281374,0.0284123,0.0291134,0.0254155,0.0257256,0.0257708,0.0262874,0.027098,0.0272476,0.02671,0.0255881,0.0246946,0.0248108,0.030858,0.0297221,0.0298989,0.0244919,0.0399496,0.0379627,0.0437337,0.0295942,0.0265602,0.0251009,0.022051,0.0225966,nan,nan,nan,nan,nan,nan,nan,nan,nan,nan,nan,nan,nan,nan,nan,nan,nan,nan,nan,nan,nan,nan,nan,nan,nan,nan,nan,nan,nan,nan,nan,nan,nan,nan,nan,nan,nan,nan,nan,nan,nan,nan,nan,nan,nan,nan,nan,nan,nan,nan,nan,nan,nan,nan,nan,nan,nan,nan,nan,nan,nan,nan,nan,nan,nan,nan,nan,nan,nan,nan,nan,nan,nan,nan,nan,nan,nan,nan,nan,nan,nan,nan,nan,nan,nan,nan,nan,nan,nan,nan,nan,nan,nan,nan,nan,nan,nan,nan,nan,nan,nan,nan,nan,nan,nan,nan,nan,nan,nan,nan,nan,nan,nan,nan,nan,nan,nan,nan,nan,nan,nan,nan
0.243195,0.233494,0.23563,0.169993,0.130181,0.0894102,0.0838408,0.077916,0.0682706,0.0652869,0.125518,0.123638,0.123544,0.0457729,0.0531359,0.050568,0.0534867,0.0506232,0.0594185,0.0382885,0.0357455,0.0518863,0.062421,0.0509023,0.101814,0.104033,0.103614,0.0824237,0.0598892,0.0412946,0.0386869,0.0478096,0.0495327,0.0344312,0.0345724,0.0568124,0.0591005,0.0475503,0.0496446,0.0447037,0.0399926,0.05514,0.0542046,0.0511777,0.0408913,0.022092,0.0219957,0.0254553,0.0303817,0.0314145,0.0187663,0.0138373,0.0212464,0.0296034,0.0277972,0.0189983,0.0231309,0.025286,0.0229294,0.0179761,0.0180299,0.0197102,0.0272124,0.0253311,0.0251118,0.0301888,0.0398658,0.0300744,0.028498,0.0229557,0.0249722,0.0256232,0.0211786,0.0272391,0.0296648,0.0307875,0.0347317,0.03087,0.0228094,0.0259328,0.0271383,0.0192248,0.01514,0.0200101,0.0146537,0.0138112,0.0146996,0.0131682,0.0105251,0.0110157,0.012418,0.0134639,0.0213398,0.0179316,0.0231177,0.0290924,0.0264006,0.0204941,0.0189241,0.0107824,0.0190614,0.0169055,0.0130416,0.0118017,0.0227085,0.0159887,0.0157339,0.0148886,0.0109998,0.0145489,0.0163949,0.0215857,0.0157502,0.0162796,0.0262783,0.0354797,0.0355996,0.0340291,0.0230229,0.0413068,0.0817483,0.153252,0.208906,0.219962,0.186432,0.143284,0.102104,0.0396513,0.00978774,0.00360621,0.00209766,0.00311535,0.00482662,0.0093672,0.0164389,0.0177703,0.0182417,0.0178372,0.0194057,0.0206733,0.0217365,0.0233564,0.0262648,0.0244474,0.0246983,0.0243903,0.024089,0.0242096,0.0297337,0.0282862,0.0271479,0.0263799,0.0260689,0.0252814,0.0256242,0.0233302,0.0250469,0.0242326,0.0213654,0.0229505,0.0211895,0.0199419,0.0185966,0.0184459,0.0223406,0.0301756,0.0294408,0.0382935,0.040052,0.0312039,0.0329334,0.0410281,0.0332815,0.0264175,0.0303339,0.0357563,0.0425491,0.0400284,nan,nan,nan,nan,nan,nan,nan,nan,nan,nan,nan,nan,nan,nan,nan,nan,nan,nan,nan,nan,nan,nan,nan,nan,nan,nan,nan,nan,nan,nan,nan,nan,nan,nan,nan,nan,nan,nan,nan,nan,nan,nan,nan,nan,nan,nan,nan,nan,nan,nan,nan,nan,nan,nan,nan,nan,nan,nan,nan,nan,nan,nan,nan,nan,nan,nan,nan,nan,nan,nan,nan,nan,nan,nan,nan,nan,nan,nan,nan,nan,nan,nan,nan,nan,nan,nan,nan,nan,nan,nan,nan,nan,nan,nan,nan,nan,nan,nan,nan,nan,nan,nan,nan,nan,nan,nan,nan,nan,nan,nan,nan,nan,nan,nan,nan,nan,nan,nan,nan,nan,nan,nan
0.250721,0.217993,0.215657,0.197276,0.178204,0.112727,0.0711155,0.0651102,0.0693111,0.0592348,0.104535,0.124519,0.116691,0.0660894,0.0556392,0.0578468,0.0789044,0.0708888,0.0470121,0.0621341,0.0520676,0.062148,0.0659316,0.0646235,0.0623091,0.0585346,0.0557244,0.0616591,0.0495609,0.0519541,0.0382314,0.0386242,0.0405787,0.0453772,0.0448167,0.0803243,0.0663973,0.066051,0.118653,0.131431,0.123767,0.0527498,0.049472,0.036837,0.0399017,0.02293,0.0197369,0.0215495,0.029677,0.0294628,0.0167428,0.0160286,0.0232972,0.0285125,0.0264908,0.0310371,0.034916,0.0191055,0.0277268,0.0306956,0.0284179,0.0197997,0.0235807,0.0249336,0.0219301,0.0300917,0.0266242,0.0366516,0.029228,0.0260958,0.0169139,0.0158618,0.0144677,0.0170419,0.0217515,0.0344947,0.0346736,0.0280544,0.0218934,0.0273155,0.0207161,0.0258152,0.0193445,0.017878,0.013073,0.0145746,0.0224727,0.0206248,0.0154466,0.0132659,0.0133424,0.0114763,0.0178072,0.0210841,0.0280957,0.0285682,0.0204959,0.0271384,0.035231,0.0295815,0.0297494,0.0206017,0.0196027,0.0173265,0.0193869,0.0234073,0.0141725,0.0165967,0.015484,0.0206808,0.0217422,0.0163892,0.016703,0.0261592,0.027579,0.0347548,0.0353395,0.0275743,0.0326981,0.0572525,0.0915495,0.154734,0.216717,0.212882,0.213825,0.135267,0.0966112,0.0496638,0.0129439,0.00488384,0.00618676,0.0146748,0.0195055,0.0247954,0.027423,0.0261775,0.0376659,0.0380829,0.038435,0.0383567,0.038432,0.0384779,0.0319911,0.0267793,0.024082,0.0222744,0.0228608,0.0223136,0.0220273,0.0205275,0.0172063,0.0134113,0.0140278,0.0147201,0.0175546,0.0183472,0.0189441,0.0174872,0.0167645,0.0148519,0.0114783,0.00895658,0.00805144,0.00735162,0.0104471,0.0197202,0.0307154,0.0355436,0.0364386,0.0274351,0.0244489,0.0247256,0.0247473,0.024546,0.027229,0.0298294,0.0345222,0.0386501,nan,nan,nan,nan,nan,nan,nan,nan,nan,nan,nan,nan,nan,nan,nan,nan,nan,nan,nan,nan,nan,nan,nan,nan,nan,nan,nan,nan,nan,nan,nan,nan,nan,nan,nan,nan,nan,nan,nan,nan,nan,nan,nan,nan,nan,nan,nan,nan,nan,nan,nan,nan,nan,nan,nan,nan,nan,nan,nan,nan,nan,nan,nan,nan,nan,nan,nan,nan,nan,nan,nan,nan,nan,nan,nan,nan,nan,nan,nan,nan,nan,nan,nan,nan,nan,nan,nan,nan,nan,nan,nan,nan,nan,nan,nan,nan,nan,nan,nan,nan,nan,nan,nan,nan,nan,nan,nan,nan,nan,nan,nan,nan,nan,nan,nan,nan,nan,nan,nan,nan,nan,nan
0.556166,0.49878,0.44252,0.198183,0.198838,0.118447,0.0677065,0.0551487,0.0521677,0.0458281,0.099536,0.119817,0.110525,0.0553107,0.0618051,0.0527869,0.0443387,0.0594279,0.0594381,0.0540139,0.0545522,0.0554368,0.0650922,0.0661805,0.0658111,0.0514586,0.0568983,0.0448676,0.0481651,0.0501484,0.0511007,0.0391996,0.0407293,0.047307,0.0691283,0.0825013,0.0789491,0.0702756,0.116358,0.132621,0.115666,0.0512391,0.0428445,0.0310908,0.0296224,0.0174785,0.0191005,0.0180755,0.0320497,0.0315394,0.0229372,0.0139224,0.02316,0.0303021,0.0280232,0.0343486,0.0372475,0.0210213,0.0244715,0.0294373,0.0413527,0.0381223,0.01905,0.0227019,0.025315,0.0227352,0.0332775,0.0265665,0.0246253,0.0228883,0.0117701,0.0131872,0.0160152,0.0199759,0.0200144,0.02085,0.0154717,0.0150415,0.0144873,0.013942,0.0139458,0.018942,0.0190247,0.0186393,0.0166632,0.0149343,0.0212049,0.0211992,0.0204398,0.0132474,0.0137355,0.0155391,0.0140517,0.0176297,0.0228913,0.0275294,0.0256266,0.0336692,0.0262913,0.0293654,0.0256498,0.0254953,0.0214799,0.0204033,0.0181405,0.0159593,0.0203659,0.0157965,0.0141202,0.0213527,0.0193126,0.0222324,0.0183023,0.0271155,0.0333944,0.0226068,0.026305,0.0352692,0.0274317,0.0508738,0.098508,0.131105,0.185192,0.233651,0.23366,0.139702,0.0939744,0.0508396,0.0185277,0.00853143,0.0100355,0.016781,0.0182832,0.0237404,0.0278614,0.0301831,0.0357449,0.039115,0.038582,0.0377543,0.0373832,0.0366954,0.0320844,0.0175272,0.0185606,0.0178719,0.0162377,0.0195965,0.0178073,0.0161838,0.0168954,0.0139078,0.013614,0.0147663,0.0156666,0.015139,0.0186764,0.0183419,0.0159569,0.0135672,0.0084036,0.0027841,0.00397275,0.0054194,0.00817465,0.0135905,0.0132571,0.0142761,0.0167554,0.0184786,0.020463,0.0222075,0.0222532,0.0218918,0.02405,0.0246108,0.0282349,0.028585,nan,nan,nan,nan,nan,nan,nan,nan,nan,nan,nan,nan,nan,nan,nan,nan,nan,nan,nan,nan,nan,nan,nan,nan,nan,nan,nan,nan,nan,nan,nan,nan,nan,nan,nan,nan,nan,nan,nan,nan,nan,nan,nan,nan,nan,nan,nan,nan,nan,nan,nan,nan,nan,nan,nan,nan,nan,nan,nan,nan,nan,nan,nan,nan,nan,nan,nan,nan,nan,nan,nan,nan,nan,nan,nan,nan,nan,nan,nan,nan,nan,nan,nan,nan,nan,nan,nan,nan,nan,nan,nan,nan,nan,nan,nan,nan,nan,nan,nan,nan,nan,nan,nan,nan,nan,nan,nan,nan,nan,nan,nan,nan,nan,nan,nan,nan,nan,nan,nan,nan,nan,nan
0.5894,0.513845,0.453385,0.221886,0.164422,0.163996,0.122807,0.0592279,0.0456002,0.0345648,0.0614686,0.060322,0.0615993,0.0545894,0.0500357,0.0526952,0.0450422,0.0426375,0.0561436,0.0532535,0.0499178,0.0567486,0.0654913,0.0657021,0.0499357,0.044837,0.0457666,0.0501385,0.0447627,0.0432643,0.0513906,0.0390283,0.0414221,0.0440796,0.0465584,0.063358,0.0919985,0.157433,0.121274,0.1105,0.110076,0.0442099,0.0372423,0.0309417,0.029007,0.0173523,0.0179515,0.0180119,0.033186,0.0330851,0.0382877,0.0152012,0.0244546,0.0337618,0.036898,0.0293918,0.0402897,0.0268143,0.0282386,0.0438244,0.0437425,0.0411478,0.0279622,0.0268904,0.0229852,0.0198484,0.0320784,0.0316102,0.0226892,0.0215867,0.00660591,0.00576027,0.00547291,0.00653503,0.00677717,0.00593504,0.00668031,0.00691105,0.00689856,0.00538838,0.00553765,0.0054925,0.00563877,0.00549956,0.00494904,0.00527237,0.00536287,0.00479502,0.00430394,0.00420754,0.00386115,0.0120989,0.0107748,0.0178308,0.0247553,0.0188883,0.0279646,0.0183318,0.0171734,0.0241931,0.0262881,0.0266383,0.0204976,0.0201854,0.017467,0.0218308,0.0170909,0.020417,0.0136394,0.019718,0.0258013,0.0194622,0.0171331,0.0309707,0.0313531,0.0241056,0.0196097,0.0264292,0.0258782,0.054234,0.0943896,0.135961,0.170401,0.217649,0.240738,0.122979,0.0885463,0.0528346,0.0165415,0.00903159,0.0103426,0.0186666,0.0235206,0.0275058,0.0261562,0.0232441,0.0239719,0.0223027,0.0197677,0.0147701,0.0132967,0.0131717,0.0133448,0.0138043,0.0126964,0.0113439,0.013094,0.0135177,0.0152904,0.015352,0.0138947,0.0105571,0.0114743,0.0126224,0.0133041,0.0131593,0.0152591,0.0145985,0.0129947,0.0157324,0.0146797,0.00955315,0.00694338,0.00500157,0.00569095,0.00909165,0.0110349,0.0125221,0.0149685,0.0162861,0.0176221,0.0169549,0.0164044,0.0164464,0.0149147,0.017595,0.0223451,nan,nan,nan,nan,nan,nan,nan,nan,nan,nan,nan,nan,nan,nan,nan,nan,nan,nan,nan,nan,nan,nan,nan,nan,nan,nan,nan,nan,nan,nan,nan,nan,nan,nan,nan,nan,nan,nan,nan,nan,nan,nan,nan,nan,nan,nan,nan,nan,nan,nan,nan,nan,nan,nan,nan,nan,nan,nan,nan,nan,nan,nan,nan,nan,nan,nan,nan,nan,nan,nan,nan,nan,nan,nan,nan,nan,nan,nan,nan,nan,nan,nan,nan,nan,nan,nan,nan,nan,nan,nan,nan,nan,nan,nan,nan,nan,nan,nan,nan,nan,nan,nan,nan,nan,nan,nan,nan,nan,nan,nan,nan,nan,nan,nan,nan,nan,nan,nan,nan,nan,nan,nan,nan
0.450135,0.408174,0.438542,0.348537,0.239662,0.150275,0.11661,0.0682139,0.0551834,0.0487511,0.0436567,0.0619068,0.0582037,0.11097,0.0945903,0.116002,0.0519897,0.0423739,0.0377789,0.041548,0.0458359,0.0457141,0.0599762,0.0492547,0.0581351,0.0387121,0.037913,0.0406368,0.0512799,0.0374883,0.0509461,0.0509635,0.038265,0.0340805,0.0356063,0.0443551,0.0551862,0.0761971,0.0911174,0.0476221,0.0327972,0.0299454,0.0270843,0.0346521,0.0291287,0.0249904,0.0250701,0.0271329,0.03451,0.0420335,0.0499308,0.0205005,0.0330398,0.04416,0.0456793,0.0423001,0.0374963,0.0383883,0.0368832,0.0377014,0.0375001,0.0338855,0.0310316,0.0355271,0.0334369,0.02388,0.0282306,0.0254889,0.0258475,0.0126207,0.00461443,0.00370774,0.00278317,0.00270103,0.00466413,0.00433358,0.0038052,0.00338447,0.0030316,0.00353147,0.00307673,0.00304503,0.00299679,0.00308221,0.00356354,0.00330896,0.00381483,0.00359622,0.00330099,0.00375735,0.00438047,0.0099637,0.0158065,0.018816,0.0143561,0.0244287,0.0163954,0.023402,0.0236338,0.0131396,0.0244701,0.0246826,0.0233385,0.0206566,0.0166985,0.0211539,0.0216487,0.0160495,0.0180522,0.0190907,0.0227898,0.0260913,0.0135894,0.0113306,0.0205984,0.0235407,0.0310769,0.0285623,0.0257182,0.045817,0.091355,0.15581,0.221488,0.235097,0.235944,0.136047,0.112012,0.068129,0.0376248,0.0241208,0.0257914,0.0279427,0.0292106,0.0262748,0.0266109,0.0260491,0.0229141,0.0213879,0.0156736,0.0137692,0.00987988,0.00707768,0.00585707,0.00475414,0.00300101,0.00345955,0.00307892,0.0053741,0.00770582,0.00936681,0.00989494,0.0194603,0.0204405,0.0276982,0.0375321,0.0373481,0.036823,0.0362881,0.0355729,0.0301713,0.0312938,0.0109512,0.00901381,0.00639169,0.00520986,0.00455686,0.00614145,0.00700988,0.00823354,0.00885157,0.00816161,0.00501715,0.00631178,0.007355,3.19169e-05,3.19098e-05,3.19098e-05,2.34871e-06,nan,nan,nan,nan,nan,nan,nan,nan,nan,nan,nan,nan,nan,nan,nan,nan,nan,nan,nan,nan,nan,nan,nan,nan,nan,nan,nan,nan,nan,nan,nan,nan,nan,nan,nan,nan,nan,nan,nan,nan,nan,nan,nan,nan,nan,nan,nan,nan,nan,nan,nan,nan,nan,nan,nan,nan,nan,nan,nan,nan,nan,nan,nan,nan,nan,nan,nan,nan,nan,nan,nan,nan,nan,nan,nan,nan,nan,nan,nan,nan,nan,nan,nan,nan,nan,nan,nan,nan,nan,nan,nan,nan,nan,nan,nan,nan,nan,nan,nan,nan,nan,nan,nan,nan,nan,nan,nan,nan,nan,nan,nan,nan,nan,nan,nan,nan,nan,nan,nan,nan,nan,nan
